8.756506449246465706e+01 6.604056262660702714e+01 5.060072099807637613e+01
2.642734005011414666e+01 4.676888618586298207e+01 6.584173392163754102e+01
3.578069212440547631e+01 2.864715094091982905e+01 2.006710712851433875e+00
8.777860234737553924e+01 8.340693983349632390e+01 5.122215960355328690e+01
9.105550764118611085e+01 7.268110255541238018e+00 4.009159655616262086e+01
2.828311654717603574e+01 9.156132753997809459e+01 1.776631347708085329e+01
9.313547159974154965e+01 7.036965392397888763e+01 9.190451013199817965e+01
8.444071998442169047e+01 8.249472949726369109e+01 7.185415748372298594e+01
8.700494703969646082e+01 6.753652121776394779e+01 6.787581137257986086e+01
8.048341015464194470e+01 8.462440752803543376e+01 6.526685577832201091e+01
3.635482885698289124e+01 4.757541168295674794e+01 4.717071444882583364e+01
3.083221236190444259e+01 1.370657257728804623e+01 2.520286230783287351e+01
7.370292131302232974e+01 9.864571516707550813e+01 8.044525122582635746e+00
9.718656197151595677e+01 2.210736192742471928e+01 5.021088838994020875e+01
9.107043046852727741e+01 7.998143667861957340e+01 9.593235905317270351e+01
6.431161876368884478e+00 2.088947257861113371e+01 4.119326665830389800e+01
4.855943810819608331e+01 6.538711420481662628e+01 1.469238194206428005e+01
2.852836886795927640e+01 4.699187383321758915e+01 5.919140657770468295e+01
7.615459437337761983e+01 3.248209519986392735e+01 1.382453386279127727e+01
8.083186018285826435e+01 6.699840279988147529e+01 9.372919411860752348e+01
1.798180955050377960e+01 8.176616865667234890e+01 6.500195019497898841e+01
6.179511321821026115e+01 1.893952285800915014e+00 3.213305167755309277e+00
4.907928502776681512e+01 1.333540377281292599e+01 3.779462922284618998e+01
5.696368396665761935e+01 8.789335206341975493e+01 6.535015609784001356e+01
5.055917604027245460e+01 2.534030753521094681e+01 9.336473069786599410e+01
5.765830718652967590e+01 3.086228234224298461e+01 3.968387164039214099e+01
9.813496614056825251e+01 6.230438774479755182e+01 6.231744505568966730e+01
1.238368764976005565e+01 9.321850450667528776e+01 2.479669901515016051e+01
2.594190228667798692e+01 1.400691701309649773e+01 1.124632756990122573e+01
5.464999862439674416e+01 6.152428703542383204e+01 1.565004129213797235e+01
2.900668015219787321e+01 4.936496543792178215e+01 3.361687110933537781e+01
3.160330985371216883e+01 7.483287265497389740e+01 9.826431970566316920e+01
6.953537324187426805e+01 8.478605563905880160e+01 7.582702832871457410e+00
6.787342784699399090e+01 1.424252328026827108e+01 9.668596977717348295e+01
6.771605688226046027e+01 2.418952106595784191e+00 6.276066526690732417e+01
5.603015304141742803e+01 2.421325557691956831e+01 1.554884624966628159e+01
9.923044273806990390e+00 8.062092377190347747e+01 6.761410821366553137e+00
3.159893096401890134e+01 7.635328813027597050e+01 5.401063774791445837e+01
4.615456263245201285e+01 7.622960610313612051e+01 9.675619343088371238e+00
8.075710894598266520e+01 6.963071259191455198e+00 1.321330270931722062e+01
7.827312458251104488e+01 6.793294996171206890e+01 8.334911670866018696e+00
9.046987017295761291e+01 6.345687140649239666e+01 8.442182127970174577e+01
4.956221889488696775e+01 6.882841629737660583e+01 3.585976419439575835e+01
4.735487638101096763e+01 2.438727828512334739e+01 3.212353577720396203e+01
3.768023232642119069e+01 1.933923549714213763e+01 4.069748056123722080e+01
5.250766120163559947e+01 7.538423696701799770e+01 7.261855758889846868e+01
6.795003925372179765e+01 8.594185672900071893e+01 2.414920265146658362e+00
7.224202336906931521e+01 4.531044799794157285e+01 5.472286288101447838e+01
9.880427942693826182e+00 4.514498742493034911e+01 9.262292828972765335e+01
9.936723556166798232e+01 4.791667993351871502e+01 3.347120180485203633e+01
8.901019887980909573e+01 7.032786256616617493e+01 6.361377456574890488e+01
8.452316754756006389e+01 7.770939408065927978e+01 2.849106968139619767e+01
1.461079258412826221e+01 7.206223868726348769e+01 1.815905009860617625e+01
3.302809045772220031e+01 8.601293258830443733e+01 8.582475102987382343e+01
8.060881510070328204e+01 6.255716748669090066e+01 1.806795908732305023e+01
2.521846967789094407e+01 2.883466089983445357e+01 5.958505891910992602e+01
4.044152783639233206e+01 3.987577075103963864e+01 1.661886453892853410e+01
8.751248391298696561e+01 4.604533205877719837e+01 4.168984989129140928e+01
8.096611873640698320e+01 9.685364108724463961e+01 9.853399517641103955e+01
6.047008046431372463e+01 3.819270873828988044e+01 7.233430944293111509e+01
6.633815660768472355e+01 3.521913655729846937e+01 1.142018756857107142e+01
2.818711274730880589e+01 1.210878505090672341e+01 9.718316874257781990e+01
9.471949977217029470e+01 4.892005311744072316e+01 3.871095461576562258e+01
2.119753208296744162e+01 7.398125830520987734e+01 5.713464919948862786e+01
4.498259572080218760e+01 8.579986533151040362e+01 9.787065485591098479e+01
8.996313533651682803e+01 9.926142163556799858e+01 8.629518971527994609e+01
2.568499926247590537e+01 9.715315411393835632e+01 2.938348340188390395e+01
2.882051740778979365e+01 1.859701537735886134e+01 2.715883865386874518e+01
5.180279065639715697e+01 7.000572441503916821e+01 8.842561087274600595e+01
2.923976102962847534e+01 1.031855023050778364e+01 1.324602307589539762e+01
5.876330783643977185e+01 6.464003499217018600e+01 4.888282589574933112e+00
1.038227547219380220e+01 2.708764906925809157e+01 1.738721190277964368e+01
6.484973810072081335e+01 8.991858885927966583e+01 2.304655733101231974e+01
9.642055148314732094e+01 4.832783652865232682e+01 3.662354804112563045e+01
5.456448064683166166e+01 9.497647021722954719e+00 3.151925785578235661e+01
4.997864083774275912e+01 5.294541664866326158e+00 6.571294375692329481e+01
5.550972170550330276e+01 1.419660048198254643e+01 2.734692132849914081e+00
1.577039801125065210e+01 8.298606253204251004e+01 2.282083984735320215e+01
9.486126081122075959e+01 1.117182022226174176e+01 3.297427497751292691e+01
9.280584998191176282e+01 6.703688179159738070e+01 3.136891948755723547e+01
4.699116875464331855e+01 7.727413126021106393e+01 4.471243685368116871e+01
4.857638268091934997e-01 3.692466075758375865e+01 8.580450083585398602e+01
9.498429278217827232e+01 8.913709685517056869e+01 4.792829557955292330e+01
8.912464611506598544e+01 2.090920402798677102e+01 4.018014575008821865e+00
2.671331501366410777e+01 3.786078245457898106e+01 7.068696129269869743e+01
6.703179222669086812e+01 4.577619914933368506e+01 3.004893261767569612e+01
5.363656833423519288e+01 7.793771764050094930e+01 5.790880847999378744e+01
5.828930135774002252e+01 5.109977937276812554e+01 2.205470138760197329e+01
5.160564393572823860e+01 7.654747402792941102e+01 1.024651081541699860e+01
4.550055789475698020e+01 6.232135254659824142e+01 7.601342171639097955e+01
5.424348568661341297e+00 7.322234724244745507e+01 6.557221762974921830e+01
6.111699631340039574e+00 8.965377031277330389e+01 5.603568477070630394e+01
2.496470885410928631e+01 8.224913185036841767e+00 7.349479973759443396e+01
8.571500187192907561e+01 4.289927607772815321e+01 4.032620136709885728e+00
6.771288164461363124e+01 4.457549710895308692e+01 5.518354817325126049e+01
2.125908672003015099e+01 5.160815400345268955e+01 6.878544835218528419e+01
4.837921450879656504e+01 3.198459424313657706e+01 9.997141228750500375e+01
8.548372592986908103e+01 3.306530024026302783e+01 5.273233776713547982e+00
7.572938233748931225e+01 8.726107936079463911e+01 3.569299769635264852e+01
4.459154025681647227e+01 8.100905957248413358e+01 6.676989950907528737e+01
8.106518116276506092e+00 8.581264837259516298e+01 3.740530465273536009e+01
9.203935046945896659e+01 2.465989330270671331e+01 9.471691464908714408e+01
7.068395207639861155e+01 8.405033746214066070e+01 3.057766155827529175e+01
1.068664078533643202e+00 9.217250070277015084e+01 9.640539445557020315e+01
3.950694876220585172e+01 5.871593125812341185e+01 1.809202777426499598e+00
7.041883590650162716e+01 1.349009156069084270e+01 9.572991862856518708e+01
3.419505233589559268e+00 5.480446611822700476e+01 1.115768928593985265e+01
4.159774000711536246e+00 8.665142603318530234e+01 5.054148477124450523e+01
3.327464512963958043e+01 2.855593882307821829e+01 8.401936701755863268e+00
6.299016050581561643e+01 4.004992417259005322e+01 2.995339033771268333e+01
4.517778225503656131e+01 6.351694142821086331e+01 8.834333967090414319e+01
6.223442626482889040e+00 3.296856359699080485e+01 1.583723143574906622e+01
4.071199329252264221e+01 3.064657278197492474e+01 2.564791635101510892e+01
7.344982795920529384e+00 7.317384937964897063e+01 1.932114758115332975e+01
7.010080125353469782e+01 2.624642589595400466e+01 8.198260771268560632e+01
3.179097028209925213e+01 3.076831423042807501e+01 7.953904134189916419e+01
4.922522059775496928e+01 7.961087228140091554e+01 5.691802380585689747e+01
5.221647270673883412e+01 2.761481423804831437e+01 5.361860111739893142e+01
7.934559703951838117e+01 1.682895458192761140e+01 1.913673363382689629e+01
3.830928027787626888e+01 9.523891382763213187e+01 3.046154372301975854e+01
8.773234592163728962e+01 6.982746064369803207e+01 5.669996795009459589e+01
7.223971705224531092e+01 3.707075125647790514e+01 1.041349693442039648e+00
2.952784567695350049e+01 6.416083164848407705e+01 8.291720150010453949e+01
2.881417310151501709e+01 8.202776171080749634e+00 3.584084232872890396e+01
9.784130372086792704e+01 4.876737985719991286e+01 8.754022593091676185e+01
4.299535099036959451e+01 5.974448681270639838e+01 6.104159954960718437e+01
5.076036427588759636e+01 4.555150614283265398e+00 4.042598100339178302e+01
5.358421219463647134e+01 2.398553871152350325e+01 3.963980358471930998e+01
3.662744544084173270e+01 5.886847166924960817e+01 4.127528429031145407e+01
4.034203398634950588e+00 5.068599648303191429e+01 8.893043627419420716e+01
2.468311040288196878e+01 8.698057742459162966e+01 2.357632277080864469e+01
2.497305363917486787e+01 6.280366965591548478e+01 3.611780429465224529e+01
8.435066144687162648e+01 6.609240566314787202e+01 6.489482258808948245e+01
9.224721443423256062e+01 5.156802761983861672e+01 1.661709844116718671e+01
9.980480489439865721e+01 7.760797798313224405e+01 8.585609423671385798e+01
3.805758418544352395e+01 6.502365674097512738e+01 7.446838433646013300e+01
3.481673497909869752e+01 8.464405413501535236e+01 6.346951145775629755e+01
4.696918467018500110e+01 3.058546903579956222e+01 9.491043593953682489e+01
4.490791071200512619e+01 8.395334542349749540e+01 4.967717074559400459e+01
5.668991334624062794e-01 7.697897201485901064e+01 2.987306911498456330e+01
9.723017923774833093e+01 1.425559844610563331e+01 8.139233646788908061e+01
5.785382181337909202e+01 4.618048065637027122e+01 4.116799748014516069e+01
2.766472392571484029e+00 7.617641117998145717e+01 4.243823558202674917e+01
3.960759761556731373e+00 2.071558045564627548e+01 4.196373929731911545e+01
9.471546587857780253e+01 6.356273834421713786e+01 4.044958862274445721e+01
4.805141701232911089e+01 3.889208471279768276e+01 3.689457660202386791e+01
3.123035952886461430e+01 3.880665922622866759e+01 4.792434201678997141e+00
9.333241067180455275e+01 8.615611424525427253e+01 7.303947579711072535e+01
3.770488998757512888e+01 9.536680186835292261e+01 8.615180669026234028e+00
5.864960917022450104e+01 9.327208947994320454e+01 6.748641626118178749e+01
4.837438909734729009e+01 1.103953943947407801e+01 9.903280503776679566e+00
1.350285550343449614e+01 3.141685088450200070e+01 1.154146004351332877e+01
1.250165923181192440e+01 7.957092295147235461e+01 5.927672068020307705e+01
5.466939596351241448e+01 4.050645273003360103e+01 7.800182787482836488e+01
4.468459136420651845e+01 4.327423170727296053e+01 4.237537658644555449e+01
1.914245651581711982e+01 9.691790033065070986e+01 9.418934898207895401e+01
9.522968827564447736e+00 6.098861518362333811e+01 5.529988920283486209e+01
4.540680209166697523e+01 4.027473468532996037e+01 8.666996441507059501e+01
8.786792542957766727e+01 1.444631202023733962e+01 2.664775838471313918e+01
2.980053511355608009e+01 9.630270029257603781e+00 1.408159138038087477e+01
4.276484957858494340e+01 3.640011980787406287e+01 1.883812921884214830e+01
4.546685409925609989e+00 9.121669522934925567e+01 5.329753157736558933e+01
4.770740585083562735e+01 7.341794000833289147e+01 5.379974148657085564e+00
6.191959210559948446e+01 4.522107645670894982e+01 6.508775273661903782e+01
1.472955011935894731e+00 6.201079425369267994e+01 2.357237505009971557e+01
4.327559718248294729e+01 9.514947377352100943e+01 5.919747309580928629e+01
2.812102588992004826e+01 3.513560259481955939e+01 8.471504371980806525e+01
5.807036723225738228e+01 6.499822560391798731e+00 9.061685325434106630e+01
7.959835526815355422e+01 2.641846460208150305e+01 5.516718279863873420e+01
8.680877817092567739e+01 4.002874738531198773e+01 9.004267683614685325e+00
9.617220978869495696e+01 9.126065739788955966e+01 9.997812348743649125e+01
3.451251699642603654e+01 1.461896057184087816e+01 9.258990543133987217e+01
8.910960118073222702e+01 3.137112947282870579e+01 3.575131449177209220e+01
7.509601571667494113e+01 9.214398918656260662e+01 2.354674918117649440e+01
3.563142190985318081e+01 2.234429019764494484e+01 3.380759980246450880e+01
5.570087788498101133e+01 1.059393259697025691e+01 9.643830951626577530e+01
9.754042291661851038e+01 8.633175163614119185e+01 2.054634491993689949e+01
2.736654576102822745e+01 1.286371944327405714e+01 7.479882354951740808e+01
7.348195674516321674e+01 8.540842695260610640e+01 5.208201454193282132e+01
1.347192817643712104e+01 7.059976295469155616e+01 5.853628141377561178e+01
9.952769301627213849e+01 2.181666860192255086e+01 9.017118160340702104e+01
7.797228756612565803e+01 2.501258709201541564e+01 9.032280322647723736e+00
4.378742008532465491e+01 9.460249792830386184e+01 3.126128461477869536e+01
6.615740553516855016e+01 5.054495560382505914e+01 6.441979882513859934e+01
2.238034909531387839e+01 7.651490797857890414e+01 4.418345350233132507e+01
5.364032093172691162e+01 7.992054431704170270e+01 8.065034802839660699e+01
4.366427744587999626e+01 2.480911067646537305e+01 5.252444232401627744e+01
4.452164894206524082e+01 5.407909289788381813e+00 4.356248391038331391e+00
2.353974285834928892e+01 4.653174508505431817e+01 9.253767742948605246e+01
5.376800349171458748e+01 9.605387173887808672e+01 2.261274751901830626e+01
9.250323418334647840e+01 7.722309424443241710e+01 1.193609366373080682e+01
2.290967322992033672e+01 4.870717017418167671e+01 1.642858362657704419e+01
2.593625930195426577e+01 5.363836422600599008e+00 2.152471616725992742e+00
3.451871882984634254e+01 9.083155514637350336e+01 4.039492547935640943e+00
7.744122164908904438e+01 5.392697653871846342e+01 5.829105503382895392e+01
7.607908980737455806e+01 1.866656905030723479e+01 6.919358080546933820e+01
3.974344489292352023e+01 9.597166645869835122e+01 3.085284526682719886e+01
8.729770338091738324e+01 8.242688499281007353e+01 9.748607216840989054e+01
6.827538980219048881e+01 4.228537377621061921e+01 6.770070379560930007e+01
4.212322991793961080e+01 7.678636645489616797e+01 4.406722605681343907e+01
8.040574614510376250e+01 5.422037079366091206e+01 7.697970425234200320e+01
1.015309684389087508e+01 5.658809464260185251e+01 8.013300042129148437e+01
2.931094675144707651e+01 9.435265719879902235e+01 6.393623530950422662e+01
9.851877086305115938e+01 2.926784084760598503e+01 2.866750196017201446e+01
3.404491123164132915e+01 6.803549445745520075e+01 2.515139974501119369e+01
7.796842271038890715e+01 3.365943155739283554e+01 9.771104586830392513e-01
1.610140373757317178e+01 7.585674737020391944e+01 5.826875763317893586e+01
6.494489525777895267e+01 6.348884803181044845e+01 3.638394614218287870e+01
6.562272435491915701e+01 4.351564491960835390e+00 9.046180704687445484e+01
3.033052739957993182e+01 7.056720409596015031e+01 8.461867676144730410e+01
4.268438116880993505e+01 8.669773792437807458e+01 9.245934459870166222e+01
6.298118306585652704e+01 8.492933526649800058e+01 1.758788957805551689e+01
6.014996047432197201e+01 2.460629467695768469e+01 6.862606693722564444e+01
3.775312012569591502e+01 7.780794822821673051e+01 4.589500202342716761e+01
6.389819130313666307e+01 6.966727229839257518e+01 2.964262810716994423e+01
2.343736943633521008e+01 2.014997984300740441e+01 4.655266152941873514e+01
1.779069273894599945e+01 5.998450919166297979e+01 4.684279479130105983e+01
9.805646907990552563e+01 2.659877498337177570e+01 7.487343216078198793e+01
4.787616411203510225e+00 5.743789674194105999e+01 1.901851793278086689e+01
9.656171777697704783e+01 3.424977101814074132e+01 3.571397179521989784e+01
1.584514690331001496e+01 2.075834878512743487e+01 8.703106379683839577e+01
9.895028826431889968e+01 8.877418965539091289e+01 8.748858595863337939e+01
8.836738111611465740e+01 3.269174531397499806e+01 5.667855517287610212e+01
7.286339093234018094e+01 9.096573711084946012e+01 9.528670267478692324e+01
2.124745310085511818e+01 4.995830886326157128e+01 3.365842785744033172e-01
4.801143481912163224e+01 6.320560695961759734e+01 2.925509481986700067e+01
4.717923031562366276e+01 3.124204907856170621e+01 3.498417389003471989e-01
8.312187365705253228e+01 5.130561849176280731e+01 7.944619718611396308e+01
6.896949209850326667e+01 6.633348356786311228e+01 3.498551447920969082e+01
5.251180428113249832e+01 3.722015526227335869e+01 1.906983990263774231e+01
6.924065937567820583e+01 1.336958148988182060e+01 7.368888094622617757e+01
7.881539609822067405e+01 3.083851181534901187e+01 4.866451289372587752e+01
7.535826342107023379e+01 5.896687062090779818e+01 8.317705893258252559e+01
6.950454673152883345e+00 4.640088570011515401e+01 3.586407623065908012e+01
2.498837907339506259e+01 9.445475518042317731e+01 1.018939979577141486e+01
6.531852426986405646e+01 7.130871819312734061e+00 2.308422910318658339e+01
2.046203347058832378e+01 4.823201044109121938e+01 1.924626661352218804e+01
8.652952952141669130e+01 1.602398624675862493e+01 4.837397289986965632e+01
1.726757184145889568e+01 5.905800284147809975e+01 7.576458416076410174e+01
8.337589185528603508e+00 2.248916767890707380e+00 3.233465771275600975e+00
1.305027756861878530e+01 1.722875378172055250e+01 5.610983349449883306e+00
4.472746202841486252e+01 7.389125403624728960e+01 2.559273765938133849e+01
7.145308340212757514e+01 9.419143855922290243e+01 3.865483396314135689e+01
7.759223492658406940e+00 4.064473291946659828e+01 4.648773931085662525e+01
3.487704233174559221e+01 5.436853316412063464e+01 8.906763954589148113e+01
5.369748762831358846e+01 7.184004253690321207e+01 6.068505158141243072e+01
6.011432799997606935e+00 2.924003324703128293e+00 8.315569645689569356e+00
1.877930261555854585e+01 2.171804094969287391e+00 8.539034538379272021e+01
9.141731916395715984e+01 9.798014166678470360e-01 4.304709842025356181e+01
6.475533142340317738e+01 4.310264024921077919e+01 1.861549798303185899e+00
7.857251250565865064e+01 7.233887918863631228e+01 9.907470659706307003e+01
1.266597748173888860e+01 9.058357098149606657e+01 6.717359804736648243e+01
9.382024949540533498e+01 2.415441819998014239e+01 6.772074633212032957e+00
8.295253144231196529e+00 6.213276432687250406e+01 9.772614162559712270e+01
5.301303929489279199e+01 5.426713728533800918e+01 4.357407986758654594e-01
2.472133526897673050e+01 6.958005498199123906e+01 4.381513935962721007e+01
7.788642958011013206e+01 6.954869553191167952e+00 4.714048157257531102e+01
3.639307865507988282e+01 9.979956977090074588e+01 9.929698800526132629e+00
6.231974967534991805e+00 3.578465429393911279e+01 7.038548151864392821e+01
8.625967581447983434e+01 2.691681659194655651e+01 1.811244954034975052e+01
5.492579037713248624e+01 8.243415578975376690e+00 1.167754173909695226e+01
5.631985706239638034e+01 2.864992681143362319e+01 5.562335570462142442e+01
3.001619321264585949e+01 8.177427551321582655e+01 2.974858621229661182e+01
6.693112957033005728e+01 7.384182471409597781e+01 7.712698880842924609e+01
2.283898833705169196e+01 9.696501386004766232e+01 4.512975504138407956e+01
1.607655715809102048e+01 5.503843974507486081e+01 7.654794262579065389e+01
8.836855293231164410e+01 4.423855674369490032e+01 4.092052893188770213e+01
9.588552184477543960e+01 9.843213631667751429e+01 4.909576008865725782e+01
6.519432452189772675e+01 5.980915564492208603e+01 5.382336324954658835e+01
1.044949639594042701e+01 9.317529635175053215e+01 7.237892920769262162e+00
8.930074192144775225e+01 3.731795316877254720e+01 3.032053065600631570e+01
2.360471276362985371e+00 8.783504820083113884e+01 1.767120743346998069e+01
6.208846387249384691e+01 9.259699128885141306e+01 8.018635204162364971e+01
1.148422276765467309e+01 5.469507620959118555e+01 2.224456111206725240e+01
6.142990828048865382e+01 2.293835984116505600e+01 3.697476667824467711e+01
4.095958591987448472e+01 1.678018826894262006e+01 8.632191733910318021e+01
8.518768607215787370e+01 5.565675996428510075e+00 6.675992263426199713e+01
5.281900495006184570e+01 1.000844782307290792e+01 8.638560273790875499e+01
2.585293354212625516e+01 1.944424421918814616e+01 1.831909135405944511e+01
4.017929986150762289e+01 4.370595230397916708e+01 7.810152868187365982e+01
3.934987975778403779e+01 9.312003094878410536e+01 4.923911644998058001e+00
7.734161862092125972e+00 4.132852344256890831e+01 5.882094609041187283e+01
6.844237596688259373e+01 2.823303191642795440e+01 2.185265440749159893e+01
8.394536062003390953e+01 1.187070951399751273e+01 9.603280730016754774e+01
7.125540399885754717e+00 2.760771862803016319e+01 7.928669753820180688e+01
1.988880379851062230e+01 3.018799212889797801e+01 9.338570698337214537e+01
7.046886527279568213e+01 4.897146118399034265e+01 1.496985583167667144e+01
2.119982627116967500e+00 9.587797586082106704e+01 5.476963499221035647e+01
4.104570511363226260e+00 8.592363934012054472e+01 2.532852809811904038e+01
8.140282673081399878e+01 5.344958202774827782e+01 1.289527904014394721e+01
2.472470444721210825e+01 2.343049810316058057e+01 5.691266983654548284e+01
4.518913236351325935e+01 8.476753650167032106e+01 1.392367313644247062e+01
6.321974120745483816e+01 9.872886907642900667e+01 2.092235071103416644e+01
8.503478744729488881e+01 6.363329540690302366e+01 7.717097483875728869e+01
6.303545413755065141e+01 4.530138412473402099e+01 3.277325802056731874e+01
1.135246380958896495e+01 6.469499358396268462e+01 6.766135698040935154e+01
8.462895802808615997e+01 8.142639990606284073e+01 8.234924943772099937e+01
3.643715272147740336e+01 7.233026849576560835e+01 9.826261620696772070e+01
9.721823587516001908e+01 9.555070688781652777e+00 7.941376643159838977e+01
7.701990562281012842e+01 2.281352755821609435e+01 7.304551092079002217e+01
6.027535803834056338e+01 3.296602600646853176e+01 3.711159124301212131e+01
9.118065941191144219e+00 6.526791880002026858e+01 2.252827564940156435e+01
5.096366827330339788e+01 7.830739089760345450e+01 2.784290125932920024e+00
2.658482012429463737e+01 2.710099819951439226e+00 2.849826515806809368e+01
6.041185507406397903e+01 3.635936570175334026e+01 6.675260102388025985e+01
3.974365383321632095e+01 6.023964089459509097e+01 5.059487790590606693e+01
4.052702945119942513e+01 7.517796199164956761e+01 5.691561709886175890e+01
1.672995224880080567e+00 7.359172342690526136e+01 8.780744247894833876e+00
4.767938859299181154e+00 6.805124319736715677e+01 4.663247181173557721e+01
3.194183407562977095e+01 4.563441137100343781e+01 4.859178325086147510e+01
4.202082506525562167e+01 2.423887627750930207e+01 4.746427685773332428e+01
4.914749780287074543e+01 4.967298565437371138e+01 2.694389132916971263e+01
6.002233183190646315e+01 8.827772466742248980e+01 4.296847115818201246e+01
7.318202860866408344e+01 5.423383346507954172e+01 2.119687849803926127e+01
6.338363965954813040e+01 6.340411817842583986e+01 2.845649745756106963e+00
6.364786194940066366e+01 1.725155243331081323e+01 9.610853425964920405e+01
1.045882426956933386e+01 5.169842014098351513e+01 1.875592838064664747e+01
6.163615930123127384e+01 5.791912840592355849e+01 1.570984009407725424e+01
8.061185352636654500e+01 9.606736639418233636e+00 9.343435957842976336e+01
7.913080239411073080e+01 5.488786297287455795e+01 4.887892160194076041e+01
9.386391568295412924e+01 9.194844975131454134e+01 9.195829357372493007e+01
1.484567547984698699e+01 2.399733598160933568e+01 6.746422811136623920e+01
5.008898027003094455e+01 2.524959880313768679e+01 1.740861746007837940e+00
6.395676333992624052e+01 3.443751443487661845e+01 7.319597843543689919e+01
1.771836855599801908e+01 2.638524520515928007e+00 4.290180295667644117e+01
3.156718535213837029e+01 6.900612509635276126e+01 7.188737576386901651e+01
9.003843291557316775e+01 3.470831064534274368e+00 4.735494948541945348e+01
3.194201713609515636e+01 7.620756579715545342e+01 8.482076809332033918e+01
9.504714001757839981e+01 5.852907029651272808e+01 5.532962292734898568e+01
5.813570481745133911e+00 4.119536818026390534e+01 7.628064727185827110e+01
7.754447496751956237e+01 9.810958187894516414e+01 7.573703828531007787e+01
5.736289318731252251e+01 7.638481642961261286e+01 7.201256423193778744e+01
4.150681092381039150e+01 1.935640200223822660e+01 2.843700630663292817e+00
2.432007863678070692e+01 5.939723780948344967e+01 5.031836347890688188e+01
2.281326649101838200e+01 5.506587602219099864e+01 8.684306167342622018e+01
9.817695305033403486e+00 8.688801290743461436e+01 3.376184135867659108e+01
5.416980995580556169e+01 2.425804603457828534e+01 4.833752366738610817e+01
3.974251096551424212e+01 1.870465820425558690e+01 2.419008814687984099e+01
3.795807709310927702e+00 2.106611284293274977e+01 7.971736314814069146e+01
1.447495306707374851e+01 5.500258293906724560e+01 6.560131296425539915e+01
8.781407611263529134e+01 5.992161506343365573e+01 5.773497754698191642e+01
5.581097265921148676e+01 4.221870587733711488e-01 1.689059617147209380e+01
5.838280150388509782e+01 5.704219392245290265e+01 3.904590607877788955e+01
4.215939314793450166e+01 7.970098207935494372e+01 6.564539332767810720e+01
2.173950483488501462e+01 2.472394429433330032e+01 9.038046659889494094e+01
9.515853075452105259e+01 5.737730085785663903e+00 7.033280601644685248e+01
1.234836227483069315e+01 6.208442500181987356e+01 7.609693667962108066e+01
4.463218165776107327e+01 3.744583861638547262e+01 8.326300711157347223e+01
3.559950220408547583e+00 1.957556102374827844e+01 6.276881478887713683e+01
2.624758574667214361e+01 4.165444861503742402e+01 2.560852799245137845e+01
7.251160851548048925e+01 1.607627047684893995e+01 8.242688632807858085e+01
7.073451204874771747e+01 2.378058919462965193e+01 3.478994436957629688e+01
3.897312824554326482e+01 2.446279107917980156e+01 9.233509601760998464e+01
5.521886943916087809e+00 3.612299966094111170e+01 7.535007655055252940e+01
3.528525147070562440e+01 9.254612848002295777e+01 4.570288018698984445e+01
3.283877779004451725e+01 6.512513567824042582e+01 5.397948985843470382e+01
6.926397854058420478e+01 6.527022874159538901e+01 1.500971238886722503e+01
8.859798593608681472e+01 9.669351843583443440e+01 9.247705306263785019e+01
3.050393105240843994e+01 3.197680032534931982e+01 5.476239341613234046e+01
7.814517759925206519e+01 9.957765949654179849e+01 5.314613161520820306e-01
3.764747772724504671e+01 6.737474117351737846e+01 8.739097484202822841e+01
6.492315854319990365e+01 3.164325671127300410e+01 2.260282615273822060e+01
3.784681379846034588e+01 5.083631972289595069e+01 1.099323621048164945e+00
8.049435927359466802e+01 7.057683100893397565e+00 9.771766300983429687e+01
6.085730138997173100e+01 4.462292847836245357e+01 1.165787586518206531e+01
4.223137384634008384e+01 2.457368647976731069e+01 1.322727934109270187e+01
2.420725103075940154e+01 8.542506208784172372e+01 6.839732775121311192e+01
4.546292119431926793e+00 6.549413120774573827e+01 8.923880635503222436e+01
1.672651637027155047e+01 7.631444490250139268e+01 1.120186357625392404e+01
8.573630451878403846e+01 8.671129373739086077e+01 3.203141327546852324e+01
1.774727423060533482e+01 3.575224662053567926e+01 9.918308890034633407e+01
4.599386784067382550e+00 5.941572142791395095e+01 1.396453349937926092e+01
5.135644578457077003e+00 5.599154026703590148e+01 9.737423077244837089e+01
9.197713813607228417e+01 6.820308246163403965e+01 3.770297346058097077e+01
6.221042398415325181e+01 6.345483462548212827e+01 9.177887197584246337e+01
1.696165844452421823e+01 9.092925303390411784e+01 9.617916642085667434e+00
4.615949023857226763e+01 1.188349324893567172e+01 8.408349544036801149e+01
2.031950281352660070e+01 7.515838978434974393e+00 3.994928165969712097e+01
3.444172183422787015e+01 5.455091119825197410e+01 6.695955843516189532e+01
9.002988422273180902e+01 2.127768574430708526e+01 4.964544375340411619e+01
1.241023628094639619e+00 9.740365260486363752e+01 1.266200925954830225e+01
5.670667648337672517e+01 2.173814964785869464e+01 9.923712242702096376e+01
1.366391053383230236e+01 5.092347426650697173e+01 6.719242127780759688e+01
5.446730057823554461e+01 3.393235747726317442e+01 7.810963229217243509e+01
2.785120289234850333e+01 7.895772520822802676e+01 1.312259696275232024e+01
1.670654796009802823e+01 9.400330139679464025e+01 3.286952971622736364e+00
5.676189979601697644e+01 9.680805262509413467e+01 3.228501369175051927e+00
1.558088229455644225e+01 2.351782796218348892e+01 2.594923716110267975e+01
9.460502247144438570e+01 8.078124290919926409e+01 5.513324032027631461e+01
7.848686286525054356e+01 3.111098512567516039e+01 7.946161751850782196e+01
9.197733705789484304e+01 5.990543021295921022e+01 4.325397389317201657e+01
4.442826329401135865e+01 5.955433031808934174e+01 7.283810465305386117e+01
6.509869596834164440e+01 2.974910104979375802e+01 1.879217755746326191e+01
9.662751713584978575e+01 2.365928105053477637e+01 3.373563768624903503e+01
3.098487197807769888e+01 7.952124837755370379e+01 9.603875329356363011e+01
1.464140139974249344e+01 2.582566081773466493e+01 3.607710435009118299e+01
1.532898283652145466e+01 8.135397930612853656e+01 1.837483281343376262e+01
5.700804371180790753e+01 6.225024483881868775e+01 9.061100446134240372e+01
6.334189062919621449e+01 6.033376368659173750e+01 7.743874956113268127e+01
4.722112836865311891e+01 9.355468251393445200e+01 8.986669211884856168e+01
4.370522665361007597e+01 8.809070598360183624e+01 4.753319526473410050e+00
8.529448643178670864e+01 8.274468964336900711e+00 4.235743565399151578e+01
6.755763563761291834e+01 1.007385503342983490e+00 7.653655446953632691e+01
8.125862695444966732e+01 1.008958588741670681e+01 1.931900706753167896e+01
9.067585012475454675e+00 6.817377808534101291e+01 5.085390114467552536e+01
5.882267489631139057e+01 3.516988869882934665e+01 7.182967062098910560e+01
4.209300628687754653e+01 5.470109940092048362e+01 9.217912461765671139e+01
2.886392557622796673e-02 5.817652620666669350e+01 6.759841167449917521e+01
8.463290907047294809e+00 3.913668057555219626e-01 7.653310847612691248e+01
8.074776566140377554e+01 4.228164151885604838e+01 5.188071438933894797e+01
1.780477772070050335e+01 9.645020563759777588e+01 2.191270096030403280e+01
3.486332945895365132e+00 7.129677873164457935e+01 7.757429170116051864e+01
8.435988537446289115e+01 2.228946239504174898e+01 5.199135697753479946e+01
2.279597799574964867e+01 9.558398100451539392e+01 2.783771622248083588e+01
1.282946911755362684e+01 6.585160463897403815e+01 6.452390849751547819e+01
9.333606207492172757e+01 8.144040043292676501e+00 7.622514087070540256e+01
2.540494181733820156e+01 2.854696206305774453e+01 2.077578942193137834e+01
1.918500967913544386e+01 5.739533224542076084e+01 1.123322069771932519e+01
7.339758855638220325e+01 1.191728121768023030e+01 8.454696300136480147e+01
2.510754193613967544e+01 6.135406679218002779e+01 4.610594056975085664e+01
3.352422179716872108e+01 4.767882068201861046e+01 4.819914819485978796e+01
9.808200016896631723e+01 4.642356850923506784e+01 9.597390155095074249e+01
1.607579947629508155e+01 8.319576915573968279e+00 9.314743154351202037e+00
4.607475013105894845e+01 1.808973159304275669e+01 3.694795116947580116e+00
1.605308979486588328e+01 9.297580301971683525e+01 7.762778768797645057e+01
1.817591399397323570e+01 8.526643953418502520e+01 7.919339831458285062e+01
7.066744912538437973e+01 7.564847237149418646e+00 5.647778648237063948e+01
6.759907948827876112e+01 8.617598326466629999e+01 7.691120540605651001e+01
3.796912882484800633e+01 5.881143564069546414e+00 8.147928768509443387e+01
3.258593073810916962e+01 1.642151820545757346e+01 6.150934470683624511e+01
7.204911157781279663e+00 2.292316778908608654e+01 4.469160401241687453e+01
5.731394065322423614e+01 8.507067175384063873e+00 2.097081356030597732e+01
7.537812972286806357e+00 4.196870201871902850e+01 3.641463615287781863e+01
3.519592658209214076e+00 2.638521634384938253e-02 5.051286043403469961e+01
2.280446486747800350e+01 4.215873303974084507e+01 4.171834863342372302e+00
7.507039529001280798e+00 9.453943594222124602e+00 1.552652077149329024e+01
5.658111446358122976e+01 7.870905434362100550e+01 3.905724410869344609e+01
6.900512580910056215e+01 7.395730371542749992e+01 5.919946475701357258e+01
6.502824930758764310e+01 6.822784775216204878e+01 2.297137129939746814e+01
8.561609279392379790e+01 9.875777191508397834e+01 3.714949202232259751e+01
7.822621493703032058e+01 6.939885884861252130e+00 1.123741133207253284e+01
9.957825238725868644e+01 9.894437637580411504e+00 3.910838020265865111e+01
3.715706113252846876e+01 4.918159329834508497e+01 9.585747409219003146e+01
5.863859695219287715e+01 1.113635461716181396e+01 9.605112118702298574e+01
5.336717743601282393e+01 5.007628163826348811e+01 9.705658249366001655e+01
2.877129209138720256e+01 8.000165295892193740e+01 6.045305875113938043e+01
2.188818030627790279e+01 2.305254087212846770e+01 6.016364219701486604e+01
7.833606469854725418e+00 6.870408235703251876e+00 3.349080918034745480e+01
8.036081696634603588e+01 6.391617146244832526e+01 7.256210933060482660e+01
8.218941206276788591e+01 8.505442270685996675e+01 6.968701209113146433e+01
8.810857652351418778e+01 6.011673326547368390e+01 1.256538863322247401e+01
9.292676021789036511e+00 1.104867164866986151e+01 7.052108042715737213e+01
2.297590089151588799e+01 9.355362614951168609e+01 9.727878645075730901e+01
7.077070925190243500e+00 5.215563063839891811e+01 5.506612865092284892e+01
3.640042133665569679e+01 4.712375625541657342e+01 7.610668544208454023e+01
2.602057569392741598e+01 2.587453183908419163e+01 8.309551323303936954e+01
6.368593326182521963e+01 5.389740644079045495e+01 7.521870178413033159e+01
4.999559008612618527e+01 4.201832221881621621e+01 8.594330994870480822e+01
5.395674095602364773e+00 1.531665492794983585e+01 1.461788038933826783e+01
5.530680695534394431e+01 2.925253934190291716e+01 8.600575647474080654e+01
9.171993067830842961e+01 4.528347162220530464e+01 8.631148906045615377e+01
6.668732663126203875e+01 9.688724423255162321e+01 8.790592795076189248e+01
5.332664761936541709e+01 5.115472156322530140e+01 7.281432834672483523e+01
8.876125403436824968e+01 8.663307172677988888e+01 3.910840817559302351e+00
4.349533737908492270e+01 3.280241389237201588e+01 4.527509712984308976e+01
1.349116544857746902e+01 9.463747300781943750e+01 7.138753786710510951e+01
6.428454224354474889e+01 3.136850111835128985e+01 1.979190322135220370e+01
3.218627636641549117e+01 4.295802922768184828e+01 8.288160188652716442e+01
9.083315172110590652e+01 6.464755207044757412e+01 9.908055722443930335e+01
7.274191330380051568e+01 4.984906578452653747e+01 9.624346105676798402e+01
2.955347901361692209e+01 6.387528609987196404e+01 3.091470477964471897e+01
5.629565541412318908e+01 3.865148798359172844e+01 6.000321586119372341e+01
9.589542157500359565e+01 7.587560908360892142e+01 2.155713034755685342e+01
2.552982401376828747e+01 8.831511088324100456e+01 6.090519241838913445e+01
3.749487992534452729e+01 3.374101627614998478e+01 1.068766774623163229e+01
1.778352056837690753e+01 7.157126501113383199e+01 8.165725708821078399e+01
2.838081866759483063e+01 4.491950512517144034e+01 8.179857487185871889e+01
9.159556301483836194e+01 7.692006648509985212e+01 2.932213849552547202e+01
6.720092273649595427e+01 3.030786217080263611e+01 1.093101012400758876e+01
6.491787956743621635e+01 3.251514007223408242e+01 6.072622842297953127e+01
5.284663113388685929e+01 1.058228720486362739e+01 2.920500585015313177e+01
3.686645274615246848e+01 5.326584877967133203e+00 2.212480200375816963e+01
6.759552976584394912e+01 7.797859923939822124e+01 1.721780576088555037e+01
4.382989762615818563e+01 6.809017698648888839e+00 9.408722358632662974e+01
5.604879502438754457e+01 3.282188335316239858e+01 7.759761954366202019e+01
5.016504474932936830e+01 2.336183338874187143e+01 2.210591566864236057e+01
7.679848351448501376e+01 3.755929861780310830e+01 1.141473933064121127e+01
4.912159557194614479e+01 6.778340460361298447e-01 2.240864865630488723e+01
6.521276490925914970e+01 5.508330314951847129e+01 9.846992664142139517e+01
2.350265995155543663e+01 3.906630749764250510e+00 8.719804822045207970e+01
2.172791980205190754e+01 5.042865755293924224e+00 8.533024377380725412e+01
2.612300657705490892e+01 1.358873203780159855e+01 9.463571177891427766e+00
5.869823349586150840e+01 9.385066427274169598e+01 9.686107482425747151e+01
5.066077717048902684e+01 2.877040409934988929e+01 3.842619650777137252e+01
8.533585813552025456e+01 2.872626238749257510e+01 7.907931971868671894e+01
8.886600157376611264e+01 5.742150354279954882e+01 1.505986329926099998e+01
2.273869925879041887e+01 2.021340475203447085e+01 2.216320785553686079e+01
5.820904658682201926e+01 6.411496415736827714e+00 4.948837858609334006e-03
6.398614410460524482e+01 8.713513548589159541e+01 2.809349442442893263e+01
5.241008832182662047e+01 7.323613368943293622e+00 9.321190959558068201e+00
9.629631775840931596e+01 1.899350716717663801e+01 7.496862908317982033e+01
9.841756103946325140e+01 8.629640044443927138e+01 6.932391777095814334e-02
3.075777390842138104e+01 2.196113536266501853e+01 5.437304992653903213e+01
4.768643746611683554e+01 3.688741886546822712e+01 1.854708674374996491e+01
3.754260832927146652e+01 3.440277570199028645e+01 3.444999296889318430e+01
1.985009320582051728e+01 4.576676512349129666e+01 5.443827720780314294e+00
8.708123814137291419e+00 7.992158204866656490e+01 2.597599583342914542e+01
9.947582183204191608e+01 4.499246771341754680e+01 5.598272423893270400e+01
2.278343584790215459e+01 6.505333526483613582e+01 2.885538011811754444e+01
9.942604132132604633e+00 8.183591439472314732e+01 3.871984321958969133e+01
2.828348096146293678e+00 6.665992400178339494e+01 2.818082986576465743e+01
2.883948573561010420e+01 9.487339713319354217e+00 5.082460872123670725e+01
9.097863557692933512e+01 1.648385151184506014e+00 5.634781782532238381e+00
4.320810147048194239e+01 8.639564682183986122e+01 8.036071057803046358e+01
7.025653089062538470e+01 8.190369231278538109e+01 3.346684728213455884e+01
6.727793905432031352e+01 1.270229196264289762e+01 2.250776827445978157e+01
2.421813418174877341e+01 3.954763209577166805e+01 6.432676890101126332e+01
1.331418177658058077e+01 6.594906341026488406e+01 7.823476269125079341e+01
7.280962812800106931e-02 6.119175957584062076e+01 6.924897163650210530e+01
9.627217441534199338e+01 5.556937916613845374e+01 1.017698136143493315e+01
2.727586404625060723e+01 9.397118958839070046e+01 6.267486344620836292e+01
8.683108195836715026e+01 4.587558363455552524e+01 5.332298199852873211e+01
9.370769215517515960e+00 5.910634759665602900e+01 7.194810265993922371e+01
3.416138005163993352e+00 5.169488385897899008e+01 1.437884159049654897e+01
3.759138811092346089e+01 5.302519029265010175e+01 6.091746740810219762e+01
6.822242186109799889e+01 8.610684135039052478e+01 8.778886763947176064e+01
6.612883660458483348e+01 9.802447356674690582e+01 5.211119260475848947e+00
7.908413808400766243e+01 3.970506827607685807e+01 4.317380193266995292e+00
5.302761710710414889e+01 4.103061173513626869e+01 7.103297955008304143e+01
4.060401567153721913e+01 3.366590416342671688e+01 6.385916971782516072e+01
3.259746716899422125e+01 5.330986116064102731e+01 5.451078334462957287e+01
2.562918274815827502e+01 2.104905342980323368e+01 8.718628305885577845e+01
5.908763987414234364e+00 2.879404833174973177e+01 7.433257687967478944e+01
6.391476014521440163e+01 4.405248533441225334e+01 3.560103560495075925e-01
2.610232297354053799e+01 6.280192247679931938e+01 3.699373422512086762e+01
5.275869469259941980e+01 8.665055399755264887e+01 6.682551765778119091e+01
5.355234797235273447e+01 7.989596830710567588e+01 7.445119659937412848e+01
6.382776286674318555e+01 4.682564066620469134e+01 9.534394772158326248e+01
7.077714576977561478e+01 3.835220963800474436e+01 1.890842149888183332e+00
2.828820123376851825e+01 4.244031814836719718e+01 7.492919661045873170e+01
3.319111493221479492e+01 8.600634486883807028e+01 1.617068401855853566e+01
8.768427246673759612e+01 5.800522303610367914e+01 8.855677708893925626e+01
9.909599652943975912e+01 8.598104743193502486e+01 5.124896426438429842e+01
1.326705121893018102e+01 2.747752123019105852e+01 1.091229733945913161e+01
3.756563771065016510e+01 3.611758986262392312e+01 5.647028013842092520e+00
3.328648343245821373e+00 6.731579664704526067e+01 3.556065724572425069e+01
6.215742840526516488e+00 1.207016429604274066e+01 8.575698535057978233e+01
4.630875717355436194e+01 6.840627099581131354e+00 4.018817914586092854e+01
6.312008417104202351e+01 2.243605998379317867e+01 5.289715189437252718e+01
9.235095180988578534e+01 4.427068073546212190e+01 9.798419650845031015e+01
7.841537983813661583e+01 5.363614649591039552e+01 3.120502901377479787e+01
2.676105918882975132e+01 9.182423775917683884e+01 3.695788463077245467e+01
5.267703997553432060e+01 1.500185903849510183e+01 5.576006969174702732e+01
5.562449910719493573e+01 8.041773055668855363e+01 7.219939224450278026e+00
1.995115115733026023e-01 6.437887405238912208e+01 5.648943797759028485e+01
4.160159390334708007e+01 5.869678126292405551e+01 1.036873653890245706e+01
2.083256723445582281e+01 9.000352490710159259e+01 6.990813289835089961e+01
3.032035921032111148e+01 4.300726126749687950e+01 8.841930119005563427e+01
1.120769690681052744e+01 5.328434603335139030e+01 1.901428849296124923e+01
9.151690753387569544e+01 7.253800265941224268e+01 8.251096531012436230e+00
9.573886402382510141e+01 2.169431983779848139e+01 2.679225813812677970e+01
9.537051677453212051e+01 8.396799170640115051e+01 9.734397388589759714e+01
1.226252599944784905e+01 2.209005158720707129e+01 3.065744063700876865e+01
2.899532377055349386e+01 4.368814569832019856e+01 4.069580218070017708e+01
8.369245249167001077e+01 1.024210930768776340e+00 1.067045615188706442e+01
1.543591515256278512e+01 6.872342970175743915e+01 9.760420740749718505e+01
3.966689880524442202e+01 2.730635649150428179e+01 9.371356211127613278e+01
8.450531524216606272e+01 4.809209031809182733e+01 7.230600168659964311e+01
7.024944740988281922e+01 2.614695128956475756e+01 3.621473711320501110e+01
3.338589980836493964e+01 3.563397264694238942e+01 3.572760769305127759e-01
1.214702860629903824e+01 7.381884144727006003e+01 9.321045301026119034e+01
7.367583483421446644e+00 6.986233578083869133e+01 9.892787211329738284e+01
5.083693063642375876e+01 6.755688549986616920e+01 9.031046070273943371e+01
6.086635775385883562e+01 5.254337909215445279e+01 9.717236580117186406e+01
4.765441111181117861e+01 1.277461846077798668e-01 5.786453736496648048e+01
3.227065405850233759e+01 9.802462172914849248e+01 4.180770769263985898e+01
9.247688833175300260e+01 9.783342685839031105e+01 8.561306489943967790e+01
7.848718066283271355e+01 3.118108969538656439e+01 9.215453435246783442e+01
1.268225240341236315e+01 6.088606649589291919e+01 7.688010740082162897e+01
1.710238004873487938e+01 5.635641131255543002e+01 5.592869701981550890e+01
2.694055880600473429e+01 8.125502073508215517e+01 6.257171541728813224e+01
8.218903194030461634e+01 7.713285653906216055e+01 1.932359918266930521e+01
9.880280348183198669e+01 9.183949516320051032e+01 2.488774859300687581e+01
6.422121878483446267e+01 8.373375899327332661e+01 7.682171341819005761e+01
9.399915562768823563e+00 3.245765650441290173e+00 8.522906493746637580e+01
6.049261982057313247e+01 1.758969111699214594e+01 4.159951337164589091e+01
5.748097977379828194e+01 1.659200237192743899e+01 9.406818154205893734e+01
8.406963429341118399e+01 1.330949269596439777e+01 5.859128098889719638e+01
5.493721174092236481e+00 5.642245401886830791e+01 2.085553405950876282e+01
2.404940909753459266e+01 1.594837941141528148e+01 4.414232284198612888e+01
8.259233247572483094e+01 5.221689274255677304e+01 1.010315653885766096e+01
2.386026719439560040e+01 3.122598150549362828e+01 3.674301079229300626e+01
8.611551036435761830e+01 3.109214646733601128e+01 2.432267783518875603e+01
5.764361679116307613e+01 4.280567843388963922e+01 2.191861065607501047e+01
8.708134115437584910e+01 5.838561359900587178e+01 6.391631102651166429e+01
6.089136351901426281e+01 7.437513054040421423e+01 3.996391417405543933e+01
2.867767749009889755e+01 3.861132789995527048e+01 6.542689733298243482e+01
6.116339827499403725e+01 8.307837914063614448e+01 7.855483512027828397e+01
1.525368302144002364e+01 5.419738799716544264e+00 5.578096188574360781e+01
5.812179823340950691e+01 8.074611946712495936e+00 3.308753689363261685e+01
6.868449035423751070e+00 4.736958375283045797e+01 6.925075908849684936e+01
3.998934646501195456e+00 3.365985375534731361e+01 2.077179442498502482e+01
8.697896443638936148e+01 1.990814567099328158e+01 5.546177999743562026e+01
9.612795996335601956e+01 7.104279942876113196e+00 8.356700495613975477e+01
3.079898138062460333e+01 8.861833666398834453e+01 3.731940195723587550e+01
2.355306563120620567e+01 3.263311416125931430e+01 9.217311668272549241e+01
8.923381952152816154e+01 4.179372743664067080e+00 4.183309169290216900e-01
1.630384463451273191e+01 4.559099706381937978e+01 6.092220229930462949e+01
8.704964375024056267e+01 9.201150495504471394e+01 6.602884596942509177e+01
7.143873896687014735e+01 1.253008603774958729e+01 6.399331612603565134e+01
9.192478220311511450e+01 9.336968817953949440e+01 8.353439582489738768e+01
4.174943774251244122e+01 3.949527880540488667e+01 3.934369180402880062e+01
9.188682816898972305e+01 2.252905473816185733e+01 4.465291199975981584e+01
4.208747164603698820e+01 2.016787483680010240e+01 8.584128768455565250e+01
3.639766486102264764e+01 6.748765386498812191e+00 7.243736957574610358e+01
6.672995003963080762e+01 2.466469254190417715e+01 9.306644497125446946e+01
8.552877373737578637e+01 8.223566390701414264e+01 3.763891466785941020e+01
1.660094803296578903e+01 2.276554647620368144e+01 7.268093849060363709e+01
8.960618778715007693e+01 5.269960707177887826e+01 9.125792019941934541e+01
9.405558418278367583e+01 2.043273317103316700e+01 1.791744488795844603e+01
9.658917954775461112e+01 9.284459529926468235e+01 4.390935415310751466e+01
2.852974020229226415e+00 8.509925805427386081e+01 7.131394231184300736e+01
9.248307906447303139e+01 6.935239778068030603e+01 1.565961025926785410e+01
6.784749863650071688e+01 2.705884443785189220e+01 2.632763254562754440e+01
4.865890328183708391e+01 8.344879868052920813e+01 6.850262965125919834e+01
9.908524308535410796e+01 7.684624436401770708e+01 7.965581023614665135e-01
5.730648114420846184e+01 4.572698863298582950e+01 2.476336126786087277e+01
7.922043526160103966e+01 4.264815463212151769e+01 1.585038083537373410e+01
7.363760912058651797e+01 4.331593987336701090e+00 5.874600268852280038e+01
1.517693846995188345e+01 4.445892380362761287e+01 3.713713807321080651e+01
4.814290809385688164e+01 2.489688267881320272e+01 6.392550735864636380e+01
9.217443839779436132e+01 9.067955806262581575e+01 6.797354144596744163e+01
7.021241714463461392e+01 5.809596883182651794e+01 4.850110005890579146e+01
8.456717150036164199e+00 8.023502026792026243e+01 4.770591481087560481e+01
1.111389210521079818e+01 5.956588073963084184e+01 9.374239179226955798e+01
7.095623061229960626e+01 1.133572745802874415e+01 5.323103991185773509e+01
7.109323344434967851e+01 1.219593563668473024e+01 9.911886128224965375e+01
8.494159895508055058e+01 1.131114756099057495e+01 8.623093340310525434e+01
8.391561120040800859e+01 3.116110073833119287e+01 2.840934608160328168e+01
3.464776305595056272e+01 3.562857293462587904e+01 5.689053883434653613e+01
