6.949531193430476605e+01 5.673909441560734024e+01 7.962436094563871336e+01
7.350251861898233585e+01 6.101079220362346689e+01 4.881776753108140099e+01
5.992992870063886812e+01 5.137078552153047895e+01 2.881845259595294806e+01
4.073655242128323550e+01 5.213770214737412090e+01 8.965746584690101884e+01
3.064154493510363864e+01 5.551337867531884740e+01 5.879916294638327656e+01
4.264997472418611579e+01 6.154207798208354063e+01 8.157492561136592713e+00
4.585185621870153483e+01 5.645906389334635378e+01 6.630272037231473803e+01
3.125980249083001183e+01 4.106826330102828138e+01 2.096902774302008510e+01
3.121897365691294013e+01 4.274665281666890593e+01 6.452185758446638886e+01
3.316168491078339287e+01 5.005793174308313098e+01 6.457250433510536425e+01
7.203839985864458129e+01 5.111136384895005591e+01 6.043129822403198403e+01
6.710129805329097508e+01 6.970241660042995591e+01 3.629828404038716627e+01
3.440916178494421018e+01 5.205438373048584566e+01 4.406648834242935209e+01
4.151456539927457356e+01 4.221922338806780317e+01 7.850639210464311191e+01
4.189697737795243881e+01 4.580286165838685974e+01 2.566472071860957982e+01
7.521143326969747989e+01 5.128747423052677590e+01 3.208545427498435743e+01
3.488319074586301127e+01 3.748249243499977013e+01 6.213306241557072696e+01
6.755867735674388541e+01 5.088940700698801578e+01 8.614456860213242351e+01
5.555495698856199027e+01 2.913610728377445014e+01 4.173947823291479153e+01
4.929569716558600589e+01 3.301559503156043718e+01 1.068007040023636378e+01
2.980662011700041347e+01 3.204012861402149070e+01 1.642868432724092642e+01
2.889685249210585027e+01 3.770539310016987855e+01 3.933206703851887198e+01
3.773631767966507766e+01 4.135165302899591921e+01 3.981143944575382676e+00
3.816164991091349634e+01 7.752345388990559627e+01 3.425910828111318551e+01
3.347890418906791865e+01 3.137031247571562176e+01 6.356453219526132159e+01
6.427950705063091164e+01 6.009454845377189969e+01 6.960798615670391598e+01
2.408038160731732447e+01 3.868072420518799959e+01 8.058081228651358785e+00
7.415661084668295189e+01 5.466772648973117299e+01 8.844787275967591711e+01
5.539932555031309391e+01 5.345592191563086715e+01 1.954580003683998868e+01
3.720822549628959308e+01 7.598236584283884554e+01 3.388234824228073450e+01
4.650363342209099216e+01 2.269785394715210103e+01 7.439051873021519157e+01
6.737562297840898395e+01 4.503503857807928057e+01 7.489631508603984855e+01
3.569824294686638666e+01 6.347441411040295378e+01 1.864198048539745756e+01
7.493694366449568633e+01 5.456959688130258712e+01 2.040643885466005969e+01
2.521728774955299812e+01 4.467264687026405312e+01 1.234498658103550994e+01
7.281164373361663422e+01 6.002514100995830404e+01 7.312505893473750973e+01
3.416411126906018580e+01 6.484645569002370280e+01 6.844070924262613431e+00
5.275879732721656978e+01 2.589042747931395994e+01 5.282668636472198642e+00
5.324709078838974108e+01 5.644165877797476583e+01 6.005831969871360343e+01
7.622120583141770567e+01 5.917169688924004589e+01 1.920233691363445416e+01
6.666856518925131070e+01 6.233795659599070405e+01 6.024691704572664719e+01
4.897858679882407529e+01 5.286566039892755953e+01 3.344425271181040671e+01
6.583074395060619111e+01 4.377168249335413464e+01 2.767541319513086151e+01
5.581711838904407585e+01 3.470023354121999404e+01 9.328676901266331356e+01
5.528148757183490858e+01 7.406635810666260511e+01 4.850179875240412741e+01
6.141862443190113652e+01 2.366097827075073212e+01 4.834980851068038277e+01
5.049114512501392227e+01 7.687471313625128744e+01 6.194651857898792358e+00
2.624083764893019222e+01 4.217126175259164000e+01 3.992253256375122294e+00
4.490785141348758458e+01 5.776130806371336490e+01 5.709070537521447619e+01
3.324266921743651437e+01 3.155331806631355107e+01 1.066236189365978859e+01
6.007921493396190726e+01 7.008656972438799926e+01 2.852058026804140667e+01
6.307704201726206605e+01 4.556495494398774326e+01 4.820173397769325163e+01
2.497441792293552254e+01 3.432754890644482515e+01 8.520484158046929224e+01
5.592181317684581643e+01 5.147421937567798977e+01 9.957971354002893349e+00
5.817215274734767405e+01 7.663472131046523828e+01 4.064165365740186786e+01
6.763983689100059848e+01 3.009663196316216727e+01 1.840447720502135098e+01
7.564510879889118655e+01 4.741579458790796764e+01 2.257895521506291203e+01
7.690611331597241929e+01 4.255056592718428021e+01 5.654159397525380371e+01
3.321725220617325647e+01 7.008084180017402787e+01 7.653162995253862277e+01
2.827654570600985906e+01 3.044904243540304023e+01 9.829468795547008142e+01
6.427774134799278727e+01 7.176761577934995273e+01 9.766176373150091194e+01
3.937551415654066744e+01 6.082113767664466764e+01 4.445735010694284739e+01
2.999293974730662526e+01 4.743086648684302986e+01 1.680200521926785839e+01
3.547972896563886991e+01 3.999830182935685485e+01 5.739184368827354277e+00
5.978080134015139890e+01 6.647392049108462686e+01 4.193346804192883326e+01
7.010975873642699696e+01 4.107315434910120189e+01 5.046372879774349229e+01
4.207365625686168187e+01 5.019454051318417243e+01 9.099301581597185873e+01
7.172618758657563376e+01 5.820701311242235931e+01 7.978046813410725235e+01
5.126152441031999274e+01 2.908768542315824845e+01 4.694068419892580835e+01
4.716263651952616698e+01 2.274816036935399666e+01 1.661849996097491911e+01
4.328399210571723188e+01 5.355424730977982506e+01 4.769833926176537631e+01
3.358163646415345482e+01 6.150697540146980202e+01 9.269075621458641479e+01
5.798295760477250127e+01 2.825502675186388757e+01 2.790082903477966170e+01
4.395629417728986965e+01 5.104601313464412726e+01 2.587924083645240003e+01
2.875111993837590063e+01 5.382201018684752114e+01 5.333235478596050427e+01
2.272610535596622938e+01 5.437870703917469228e+01 6.949701331214758682e+01
3.845158137062665560e+01 3.469589503775858219e+01 4.318070951077772435e+01
7.817798259287262397e+01 4.841730321634074841e+01 7.940144502659627790e+01
5.764889031398659114e+01 3.420694346575553624e+01 8.099787436834724019e+01
5.110938214723979911e+01 4.455178144931611683e+01 9.669685146183152824e+01
7.180141781270015144e+01 3.720435678122073853e+01 9.244951703706661306e+00
4.579002951270714306e+01 3.944793908388574977e+01 8.670601823789473883e+01
2.476316430714387096e+01 3.480519554773204760e+01 8.955557408738850711e+01
5.260940132515420231e+01 6.877692063657347887e+01 2.734745153749798163e+01
3.862877051455452460e+01 3.534731920607205780e+01 3.156332153671522889e+01
4.910197626689100048e+01 3.207335823115712259e+01 1.922579184680919440e+01
4.447127768583357721e+01 5.765449899511400389e+01 9.833407684142265737e+01
3.169041377206247745e+01 2.667945494338308521e+01 5.059258001463938825e+01
3.596755612230677457e+01 6.872343434606828794e+01 3.128341975242200235e+01
4.091825874584885980e+01 3.293792693020757412e+01 6.933775385188523899e+01
2.939167605049337695e+01 4.463263599865612008e+01 7.270185270141340084e+01
6.623179135395822925e+01 6.096819082757774311e+01 9.150984544900299511e+01
2.746658697879054145e+01 4.744349141471740694e+01 3.337765970697977735e+01
6.317224183265840765e+01 5.187478471147094439e+01 5.116550644547590565e+00
2.328585568760942337e+01 4.920017294320827261e+01 3.102352837447047662e+01
2.581076431734147292e+01 4.639854174403807718e+01 1.332842580821731460e+01
4.583634794263061707e+01 5.287073198840526089e+01 3.437685835172521465e+00
2.926550976674078441e+01 5.454279502117130818e+01 1.334163355232070813e+01
5.281892617563561743e+01 4.672609960075025981e+01 1.067118191023542728e+01
2.600480402524338785e+01 3.850580557189616826e+01 9.429827840711357112e+01
6.391078469947063212e+01 3.409619736429885251e+01 9.976722632646591649e+01
7.014991014651660350e+01 4.593436555939563704e+01 5.510153515883109421e+00
4.268947278233026310e+01 4.690249397178835267e+01 9.285555328941359221e+01
6.410861035821594101e+01 3.116529166546488838e+01 5.253182644507214150e+01
4.778673549131357845e+01 3.552839742369226173e+01 6.825117301162001127e+01
6.622321583295929770e+01 7.153223105291355921e+01 2.681432296119208303e+01
2.446550546047130581e+01 4.213008816333646678e+01 8.388393367652703603e+01
3.496143988077221820e+01 5.963464974967759247e+01 2.742128891241469901e+01
5.807559990556590890e+01 7.416841289918231439e+01 6.752308375620374647e+01
7.589768318540306780e+01 5.006195323339309766e+01 9.117851123817713699e+01
2.948172383467668567e+01 3.545482088286073719e+01 5.645940812903214834e+01
5.372756736680381096e+01 6.771242634825640039e+01 6.826711524627593519e+01
6.287340150599929700e+01 2.661013685373085735e+01 3.900642076281812809e+00
6.917776391419823767e+01 6.742935737000246377e+01 9.799554473582784908e+01
4.301427320968262791e+01 4.377650549881284547e+01 3.103708891081200605e+01
3.753213457730137748e+01 6.267533485423312101e+01 1.460965655413202313e+01
4.051971425753296785e+01 5.960435954776471590e+01 1.074505526289081203e+01
2.651707411833556094e+01 6.628597876346657358e+01 9.654486346006211761e+01
6.296835952592029173e+01 4.161609464061577768e+01 1.665385134972699888e+01
6.043044198214788310e+01 6.300186806188273891e+01 4.173829418004733327e+01
7.360354004260655358e+01 3.200161130873917159e+01 5.060446924118365786e+01
5.866017374045604527e+01 4.553949052479408266e+01 5.180153489085197549e+01
4.426937019674358709e+01 7.322192063122223260e+01 2.330189643968347823e+01
2.367204758538329301e+01 6.280304645695370169e+01 8.299395932124433273e+01
4.156277820291551706e+01 2.583004291275922171e+01 8.670116069106003920e+01
6.692682917508349760e+01 4.480854872830764890e+01 4.879001952793018404e+01
4.511300697978414576e+01 7.186992659727960131e+01 5.862354987807616169e+01
4.189236247929186874e+01 5.172721697543105535e+01 8.421301117709834472e+00
3.893897796668734657e+01 7.326126992403987970e+01 6.847251638810045904e+01
4.111272782593792385e+01 2.343250656505268026e+01 1.965148274684780372e+00
6.225469904622816841e+01 3.089177228437660716e+01 3.687251554708459622e+01
5.757924711223096637e+01 6.451500833009033897e+01 1.696912931546645797e+00
5.420152984797260842e+01 4.595629775055218857e+01 4.989679442207930293e+01
7.651488498612638978e+01 4.852906340617153802e+01 1.493816362264320752e+01
6.231378537478254032e+01 3.560672991191447778e+01 7.889139629658670572e+01
4.035199924402112259e+01 3.332998598705250259e+01 4.919280240391292836e+01
5.727725097371090612e+01 2.383372106279969671e+01 7.939550847155906865e+01
4.864827657324228483e+01 3.340455484199596015e+01 1.068209929639906086e+01
5.517123720199668924e+01 3.565589211768887168e+01 4.473027562526006307e+01
2.434670440667601099e+01 4.577646127041341373e+01 7.595201487169440213e+01
4.189329779839459889e+01 7.758650652027868944e+01 3.387329557744314457e+01
5.097260752881796719e+01 3.000670829054399391e+01 1.512642844626759242e+01
2.846747388464636686e+01 3.759712219291391477e+01 7.563100969802940199e+01
4.873748079212448658e+01 6.250915526865286154e+01 9.461868939912612575e+01
5.797714417624796113e+01 5.402172667786185656e+01 5.032293293466394424e+00
2.489768991613649973e+01 3.723070985730478100e+01 2.546637658899618728e+01
4.889509264384520293e+01 4.074078813546854150e+01 9.865694907793265145e+01
5.119386306819278332e+01 5.270076245815337046e+01 5.615945077121941864e+01
3.372124904062857809e+01 4.022604136835420263e+01 5.122429640431325204e+00
5.498769211562104431e+01 6.195825928270868133e+01 6.634903451287101461e+01
5.494118320609645423e+01 5.908662673951145194e+01 6.527281237772241695e+01
2.556662233318144217e+01 3.645664275198644333e+01 8.436805296649777119e+01
7.829236142575723534e+01 4.426548482604331269e+01 4.852667423426215976e+01
3.761904687696221572e+01 3.673405152772799909e+01 5.259465769014594372e+01
6.707273254426007725e+01 2.694394463036550036e+01 2.775228049023925792e+01
5.095088732242019347e+01 5.457496797794356524e+01 3.594238268308171058e+01
4.086995622709339671e+01 4.666831558308641803e+01 5.270978985343899303e+00
5.087059842162666712e+01 2.431245304226686699e+01 7.447507316299221714e+01
5.962585752327021282e+01 7.097370848010203304e+01 7.357829625414535890e-01
4.698043214486815344e+01 4.554655720063617252e+01 5.821448028147420217e+01
4.596147517329264076e+01 6.285039000835678280e+01 5.572518333184106609e+01
4.981892991739791654e+01 3.295304137739967132e+01 4.406031140591747430e+01
2.622743218149848943e+01 4.360704802193126284e+01 1.569026241461201110e+01
5.908045335179158286e+01 7.214491571095720701e+01 9.412789289067980292e+01
5.621447538275850064e+01 5.527038900455401205e+01 1.147419583381918962e+01
5.952768411040545260e+01 5.391937941273143764e+01 9.688146905778044982e+01
6.154289150329266533e+01 4.057144241809476881e+01 4.108236495555528833e+00
3.472884743056977896e+01 2.652285225026745863e+01 6.860911539434869155e+01
5.924934791764050601e+01 4.824930605276629336e+01 6.225753978327816895e+01
7.146960890066222305e+01 6.037927572861180181e+01 2.989261500983332454e+01
4.108163955674277901e+01 2.176997988572324516e+01 9.660214591302084841e+01
7.990821457719545151e+01 5.084790353080260417e+01 2.329018386494816539e+01
2.685989329145974835e+01 4.948259516005462899e+01 8.611611050637380416e+00
5.591366564629684177e+01 5.027834418466805744e+01 1.444364841550775935e+01
4.420662131180750265e+01 3.341046520865632630e+01 5.218308753051893234e+01
7.130142918617407588e+01 3.662863862065221809e+01 5.293593556881825535e+00
5.601159830093484260e+01 3.864625643279352118e+01 4.202496018075419215e+01
4.103037218726620949e+01 4.707009994910615802e+01 4.914839034517703986e+00
3.016622416311488664e+01 3.840190739649581531e+01 8.543995133256801466e+01
5.334802087447828711e+01 5.963935996924615068e+01 3.660282657465152312e+01
5.016991660064248038e+01 7.254681684501628069e+01 1.132312232591253753e+01
4.063664052774614532e+01 4.850729091426953943e+01 5.408270639715397010e+01
6.928784276966521816e+01 5.558708141989593088e+01 6.995278704025719207e+01
5.246723066856222317e+01 6.393748005427755032e+01 3.379987810284900007e+01
4.498039907044286423e+01 7.563560547436343029e+01 7.941345617322723172e+01
2.393698363420463338e+01 4.179685080138870745e+01 2.511920046044672361e+01
5.722838145420011813e+01 4.418537080910639503e+01 3.467187612359111881e+01
3.320007021176791540e+01 7.444421678375536544e+01 1.519801824740511975e+01
5.552958253281813228e+01 5.275796224253503652e+01 6.554359784406612732e+01
3.517098179588082729e+01 5.434844285830144628e+01 7.273626177719649810e+00
6.618603122150055640e+01 3.555297971520076317e+01 8.088585390335653358e+01
2.947013698855279884e+01 5.712129177515171818e+01 7.453977391415395459e+01
3.789559098125076275e+01 3.027676076174250497e+01 4.593460101728227585e+01
4.377814772996199366e+01 2.307345902070537846e+01 2.911964549966241833e+01
4.276690858241691018e+01 5.960639311005950702e+01 8.965223123567900743e+00
2.874025338454825373e+01 5.578791835778855557e+01 3.043075918208642960e+01
4.298312575130025692e+01 2.872576948770676353e+01 7.367945687101969554e+01
3.550152661362466944e+01 4.819001671099773887e+01 5.031335547483197956e+01
3.159358223856367687e+01 7.292402490975679541e+01 8.747470734889746780e+01
3.984787621092144150e+01 3.169130138185443002e+01 4.673873354479254516e+01
4.263182939907012781e+01 3.337042075756298942e+01 3.164687840614985959e+01
7.955443919266480179e+01 4.771463759890492895e+01 1.308811385535759797e+01
7.097850502239725756e+01 4.822252303373265647e+01 5.203236261913857419e+01
6.760930341645767783e+01 4.050010985875483982e+01 9.315444071065202536e+01
4.162849285443547132e+01 4.488513656520029826e+01 5.990110442135675584e+01
3.270067684961021115e+01 6.279587353429077723e+01 2.751902117734756814e+01
5.323602348613148649e+01 3.033642822141704443e+01 3.928390764814023584e+01
3.216863687013093909e+01 4.654869724396994002e+01 9.431958496934507252e+01
6.433697250697605341e+01 2.625102904831656403e+01 5.234717843131308612e+00
4.830662451933026347e+01 4.160706704086861407e+01 9.778536935017817200e+01
6.153478406285742608e+01 4.119465486122636833e+01 9.344107945712147512e+01
6.491539648308727806e+01 6.980705464034015506e+01 6.381399025162692595e+01
4.737732925144229057e+01 4.467721588396068455e+01 7.096532494887175524e-01
6.773006863356594920e+01 7.026295764379158015e+01 9.559800588260722520e+01
5.313399532366091194e+01 3.997195509744275910e+01 9.537036264917078654e+01
6.421102350255210922e+01 2.981503562765556126e+01 1.264642454035711516e+01
4.360469741185790582e+01 7.486721752509907901e+01 8.279249545453124881e+01
3.768106277742124632e+01 5.335544335535794858e+01 2.410046851345493124e-02
5.857782709310475866e+01 5.867679078445912211e+01 4.457298209028691360e+01
5.376921285909715209e+01 6.636247207672995785e+01 7.839718505055894582e+01
3.948072828782560606e+01 6.460469440965960075e+01 1.506109530685191267e+01
4.837968965827963075e+01 4.904490967359499365e+01 1.197467885005318777e+01
4.324371667165030431e+01 6.231724245321872502e+01 7.442841843851565997e+00
6.374046122611834875e+01 5.567092565528538728e+01 7.382955104783076195e+01
4.841844983225968235e+01 6.481021272610713879e+01 1.835838399922395947e+00
6.539942214202483228e+01 6.185851490721153567e+01 3.098471167532799342e+01
4.608687352696519923e+01 6.713044235642797730e+01 1.621833724078773997e+01
4.864423871418745193e+01 7.385390394759076571e+01 8.668552130270660427e+01
6.262592746624267193e+01 6.690535153169479088e+01 1.262834725845689476e+01
6.178131945892864252e+01 7.699736182066008894e+01 1.039593759123895822e+01
3.144341058114054022e+01 5.809685866315924585e+01 7.298891177035977762e+01
4.109329049627582719e+01 6.292191930082920948e+01 6.993129211553036839e+01
4.582533147650479322e+01 2.624160816962144338e+01 2.417645074796815763e+01
5.014414736979107090e+01 2.336247636485665424e+01 4.095609272625092245e+01
5.019355807808606329e+01 6.050712534377436924e+01 5.598905318457853753e+01
4.864050355361781897e+01 5.049328040894000935e+01 1.764119104278861627e+01
2.527658599511640602e+01 4.066365268849704506e+01 3.831644685591258082e+01
7.946628923978890668e+01 4.563168205509623476e+01 1.707682600033368914e+01
2.672098954860740960e+01 5.091133851875220273e+01 1.474539174261348862e+01
6.116556756460141031e+01 5.657473065511459254e+01 7.147023163822576919e+01
5.438779211611175413e+01 3.385540274370513458e+01 4.734349335940487435e+01
3.206627547364322339e+01 5.523380134555028320e+01 5.050747083228213086e+00
3.549951158139418084e+01 3.207121649842938638e+01 9.639160120731884263e+01
7.583847715899177899e+01 6.060138319360812886e+01 5.703125078265038894e+01
2.078238414588358296e+01 5.040700797484242912e+01 5.448816860293934639e+01
5.265949425897893121e+01 3.032810260654452605e+01 3.625832125946770645e+01
6.549071231478590960e+01 4.427359277064583409e+01 9.489162181887151348e+01
2.459997403067951538e+01 5.320868239380113351e+01 4.823562085827529700e+01
5.734917638909766424e+01 2.152438205009536887e+01 8.616249500839784048e+01
6.542357799453178302e+01 5.336169313092108268e+01 9.440412782809274006e+01
3.962772624917005970e+01 6.938633423283945945e+01 4.893227474751213890e+01
5.125762159242116667e+01 2.677743146041174782e+01 4.549507768419996978e+01
4.707849970127072936e+01 7.066425217489339161e+01 9.406399991861138687e+01
3.732073691051268582e+01 4.932474930259858326e+01 5.791298040350491050e+01
4.027855340464950018e+01 5.888102701562232255e+01 8.922216805723859778e+00
5.611502124351743959e+01 6.874368609408672626e+01 3.254182806826078433e+01
4.238081851735741878e+01 6.498639217025750270e+01 2.469729768611128584e+00
6.906153123866363330e+01 5.724077259677650886e+01 4.045195244582350114e+01
4.241850557459761717e+01 4.466887217446648606e+01 2.541472801278143834e+01
3.903764460469538733e+01 4.157748009896514674e+01 4.691774960927717331e+01
6.637343606939384699e+01 6.657844014688708967e+01 2.862243072399943600e+01
6.447567265900929101e+01 3.396606204814427343e+01 7.079478267011890580e+01
5.574247446701420472e+01 2.560211730615130676e+01 6.508279504893280887e+01
2.678735828174407629e+01 6.040049977395000980e+01 8.713335923402824790e+01
3.734445911454354672e+01 3.835345124339769285e+01 8.366202103676580748e+01
6.507883208469019110e+01 6.141688503188926518e+01 3.341430223838622027e+01
5.127498997939296288e+01 3.982502348634127998e+01 4.971672807176857134e+01
4.467395253113928533e+01 3.429665197000781518e+01 1.382455656340571082e+01
4.394653743584421335e+01 4.963227712843788453e+01 4.036466944934777956e+01
6.786600938268971106e+01 4.208965287592260296e+01 9.614175778465732947e+01
3.972912929459057096e+01 3.368477014471527298e+01 5.694823881365918083e+01
4.149977583707542550e+01 3.269421002546949495e+01 6.066893231978858125e+01
5.058092225923297747e+01 5.603486743503233924e+01 7.286151567927768724e+01
3.548457234306582109e+01 6.126843446746072175e+01 5.853754227909563213e+01
5.476161006537471110e+01 6.404832931422122044e+01 2.594491710680762964e+01
4.089272357566719762e+01 6.619698394506340833e+01 4.648547808132706649e+01
6.305886973085434732e+01 4.495989060077373267e+01 1.886322464240748431e+01
5.078974160033808971e+01 5.285842014374423314e+01 8.106038482601610440e+01
7.355207057935811576e+01 6.637916239414440156e+01 1.133870955525725321e+01
7.206162906637149490e+01 5.003051563545147928e+01 8.940995361061592916e+01
5.345545447560391494e+01 6.751298858444197037e+01 4.174482838964625131e+01
7.306790115283902765e+01 5.218622953321787605e+01 7.417619559431221532e+00
2.810738854451131274e+01 6.680194525125598659e+01 1.766823141763051908e+01
2.452793049743673492e+01 4.484078410159328598e+01 3.205361668064955438e+01
6.906227420813415563e+01 5.134344971258201440e+01 6.506065232521034147e+01
7.506690142816549383e+01 4.886049258779847548e+01 6.032221356579636762e+01
3.326901796926699717e+01 4.382986080331659196e+01 2.626933098800051525e+01
7.163253434760279958e+01 6.693854236698692262e+01 4.769919153781749799e+01
7.778777055368772153e+01 5.003583603843901528e+01 3.575133284272369139e+01
2.774267348009791334e+01 6.428020501620824234e+01 6.928011986299087255e+01
5.176298283979672021e+01 5.778770814409091372e+01 7.493153551424343561e+01
2.566616898959144066e+01 5.929847477554939417e+01 9.359941790017776952e+01
6.781225015366464959e+01 4.144298124670365979e+01 6.895342089054152268e+01
3.439796363163701898e+01 2.772584163491861275e+01 9.966832779346796656e+01
7.507902311797877815e+01 6.447199773818176993e+01 3.552896432193188048e+01
7.620327210390510686e+01 5.373791904438550660e+01 8.407850719391146299e+01
3.012312947939081909e+01 4.633910088046462050e+01 5.994305420276216978e+01
6.594232468499163247e+01 6.247006694066079291e+01 2.825408636624435843e+01
5.038887967912734922e+01 7.087656323456545238e+01 2.489435247968727793e+01
3.244382286350662525e+01 3.342153372601146799e+01 2.574240974721619946e+00
5.182183156359274534e+01 4.555016952192202240e+01 3.082461869937025423e+00
4.892162486880906869e+01 3.419344935747265879e+01 9.242184348426600593e+01
2.193204012113820767e+01 4.288874313502105906e+01 6.522640059437702575e+01
5.159458785254233959e+01 2.534937532571903773e+01 9.405373011029476515e+01
3.811468820347355546e+01 4.118522831444969512e+01 7.275793221349439932e+01
3.359461533789338716e+01 5.606944813756800983e+01 9.505653683256443998e+00
6.056992404598756963e+01 6.918639081608444030e+01 3.830693697265067499e+01
4.956539208832471388e+01 4.211189044340816423e+01 4.105227843514278874e+01
6.272584006359782904e+01 3.163754073876828699e+01 9.731447114269086285e+01
5.435955749112920898e+01 6.537779229561563454e+01 3.870500119348869816e+01
4.572304196195443637e+01 5.496223011060349251e+01 8.878176403358189361e+01
3.940836485100318498e+01 3.166024348274128997e+01 4.001552728653989988e+01
4.415340103788969373e+01 4.906135758981990591e+01 8.487675852813141830e+01
7.060581146380307871e+01 4.904544085197846925e+01 2.576956481891796713e+01
3.947753167716828671e+01 4.922161832874668619e+01 8.806505774645778217e+01
4.129111895892132367e+01 5.374937536732345222e+01 4.929966240916994202e+00
6.478370386082265497e+01 7.120719922479304387e+01 1.784506740983747974e+01
5.967229901062170683e+01 3.372020351689527473e+01 2.625086042665440900e+01
3.593389905157872022e+01 4.753590676808685345e+01 3.635144573692667080e+01
2.197227501103968805e+01 4.386716968030488317e+01 7.820018255939413621e+01
7.839525180978409935e+01 4.532617725258596408e+01 7.921899382752451402e+01
2.740117803855475387e+01 3.148411554087353537e+01 1.168041077339520051e+01
5.684722021568195771e+01 3.637255211356842466e+01 7.565385834953066535e+01
4.732131868843987377e+01 6.177269240617943069e+01 4.563259238223985648e+01
6.422096370026973489e+01 2.456315740488145138e+01 1.092794453681599265e+01
7.050632842053791194e+01 4.509865026483437589e+01 1.007528439595762926e+01
3.976349857327529946e+01 3.363127275049555465e+01 2.344840067831699315e+01
4.806480283124089681e+01 5.518287335341685207e+01 6.317748436527553935e+01
3.333678381165627513e+01 4.491234139302508055e+01 5.706645789807890168e+01
4.355891580127090634e+01 4.148468503015949693e+01 7.327234154133066113e+01
6.095285097540635633e+01 5.851947853928538734e+01 3.697378108726887547e+01
4.860575419026809385e+01 3.137821433057287379e+01 1.418443976169852050e+01
4.433203207726986506e+01 5.858630505279215583e+01 9.760783324725188947e+01
7.704117870686437186e+01 4.996184119987619709e+01 3.052145301288591384e+01
7.783719045454911623e+01 6.085715931739742501e+01 9.709047114498694953e+01
3.736056595340591002e+01 6.814606125171712847e+01 6.353572242391858360e+00
6.448560434297267818e+01 3.739387136037746018e+01 9.509413518658342923e+01
3.849587226375571447e+01 4.022946780763187036e+01 7.832900924388664521e+01
4.809416080843035246e+01 3.763118169549976244e+01 3.631891237162250263e+01
4.863916280888938104e+01 2.984506611477605276e+01 6.380927257964523847e+01
6.773039592981410806e+01 2.895827046707271180e+01 5.771997464225614749e+01
3.794613805934648099e+01 5.065499999085471927e+01 5.628302372146028887e+01
3.133676944572781764e+01 2.951088601842852910e+01 7.334018493349057621e+01
5.251408517696296485e+01 2.029935591911972281e+01 4.518690446522778359e+01
5.480214972291350506e+01 7.027382992895869052e+01 7.927034057807513534e+01
3.329502469623732708e+01 6.694120642536434218e+01 2.161358123109206986e+01
6.227412763774775328e+01 4.128393977589064434e+01 8.598544903351216817e+01
6.114948527191991445e+01 6.960314069891137478e+01 3.424752191863041872e+01
5.206553537341115145e+01 7.422010091211325289e+01 5.097355100039371223e+01
4.224457900308791380e+01 3.980871782362308409e+01 2.644690259766746543e+00
3.293780670342177075e+01 5.877954050663721830e+01 8.472967455354940114e+01
3.377479967348472201e+01 4.184494971754580916e+01 5.085388914977079367e+01
4.767538755083281643e+01 2.706746059652893521e+01 2.917066857407446534e+00
6.051016222371507070e+01 3.957448298473543957e+01 2.986721573875497171e+01
2.060737799371752388e+01 4.412296690917168007e+01 6.500078894888849490e+00
7.858084842443500406e+01 4.624568170651479448e+01 9.409657878427938726e+01
4.863721008251475553e+01 4.626192719337295500e+01 7.850718615635126696e+01
3.172552164497000149e+01 2.819295517515607585e+01 5.308590342884757973e+01
5.171208881133304658e+01 7.636104796141586348e+01 4.473324266661877857e+01
7.435442696372945193e+01 5.807371397973518867e+01 3.881330810022492983e+01
4.234388048997924869e+01 5.149275088606720630e+01 1.706774353022336754e+01
5.383841868964331923e+01 4.544827329553567097e+01 2.092877615301198446e+01
3.799599522597525691e+01 4.484852280026338178e+01 9.806482195640495547e+01
3.502723706693275574e+01 4.521829393601078806e+01 1.335155513528195570e+01
4.139260580525888855e+01 2.700584661015557231e+01 2.068371106166084772e+01
6.540230776587604566e+01 4.162170310323144662e+01 1.796592890299120171e+01
6.891090814868240955e+01 5.650722830366936478e+01 8.586720549294962268e+01
4.367771693233196828e+01 5.201807365667596628e+01 2.949311358038643149e+01
5.138758347782336244e+01 2.315829912889994091e+01 1.812180436136172546e+01
3.161048879408956225e+01 4.244928326765351301e+01 3.093242243582229278e+01
6.516797948784270034e+01 7.126014072983932124e+01 6.880305189519813780e+01
4.523234776342960117e+01 4.243890180725104244e+01 1.567629475992946553e+01
4.264060564919728336e+01 5.374169385998069970e+01 2.250432742868646585e+00
4.441130051754063857e+01 7.813562183952002727e+01 6.800460563742699094e+01
5.570475861922341210e+01 7.873488484097070739e+01 5.413353827012672070e+01
3.980548406789377225e+01 5.136333839286509573e+01 8.030455246758798182e+01
3.736502963729842008e+01 3.881214567684970973e+01 9.569011605800115561e+00
4.131944788027976756e+01 4.056193902554423403e+01 6.795518365726839249e+01
4.481608733690020330e+01 2.744126316356817341e+01 3.931704345642641840e+01
3.877643285297497044e+01 2.868668749827939379e+01 2.685796043329665750e+01
2.215271519023670521e+01 4.635478392589218544e+01 4.703240479372063731e+01
5.428413743340746578e+01 5.296445270351334500e+01 3.477700976044377512e+01
5.205205336415145467e+01 6.553831994634532521e+01 4.183630384287931037e+01
4.515470228174244482e+01 4.080200912850811079e+01 6.874648040497281443e+01
2.498674652579293465e+01 6.402509149522762755e+01 8.774892417314880788e+01
6.044889822584595152e+01 2.770254488696243200e+01 8.623349164397315292e+01
2.834611492640791752e+01 6.867557202819088502e+01 6.742196324473968616e+01
4.570239521926254866e+01 6.065122253232188854e+01 6.042595159869252086e+01
2.650349181405474752e+01 5.361922792822041117e+01 4.491482027322125958e+01
2.277783416178014164e+01 5.838582673080153995e+01 3.714633393344715273e+01
4.489117225927900989e+01 5.371693216040288377e+01 2.035355224818048470e+01
5.541697216110000568e+01 5.588408709546664710e+01 7.070311693228843808e+01
5.854859383150355967e+01 3.156536269823240204e+01 8.693956069225416528e+00
6.582837834261573562e+01 2.638060749463575405e+01 1.206993530061795106e+00
5.189373642647569085e+01 6.057594893589720897e+01 9.628704940018096181e+01
5.894708030932468290e+01 4.711725593781418553e+01 5.734016258977037950e+01
7.440494512285778228e+01 5.032192071829621227e+01 6.779639582811258336e+00
6.641257392833503559e+01 4.265919010543933609e+01 8.891193557274428372e+01
4.541674701677638382e+01 3.858594468361090435e+01 9.820773786356308221e+01
5.907537213530648046e+01 5.993635517382656275e+01 4.187589904826549514e+01
5.562363940257727535e+01 4.114109317604655303e+01 9.477328040063054004e+01
5.664436850866265871e+01 4.717563093908743355e+01 4.958194726485390902e+01
7.166319367020314246e+01 4.372816482446175712e+01 4.035486208136883590e+01
4.766204563105404191e+01 7.636152989616566344e+01 2.582643578871635270e+01
6.546211935154629202e+01 7.093142948034834205e+01 5.861823540883413841e+01
3.572419681701362038e+01 5.770533417135442988e+01 3.422655927897461936e+01
6.502969740735076698e+01 3.290057296622328664e+01 3.914542707944711708e+01
2.621129720167964905e+01 3.430440057930101716e+01 4.107004005865431395e+01
7.204160690923428945e+01 5.115361942347917790e+01 9.435652171569769564e+01
6.571976616400621651e+01 4.390292439804479585e+01 4.488101647271802719e+00
6.898210713287619456e+01 4.818372535762581776e+01 1.243453174424107388e+01
6.220294792520092386e+01 5.057422983554443618e+01 8.171021330026148632e+01
6.952296557477356487e+01 4.179992169203515573e+01 5.655574832263869922e+01
6.490806020188844627e+01 3.502366143270767651e+01 9.170985051717941872e+01
3.330076330522442163e+01 3.735662860390805662e+01 2.143000723228786342e+01
5.851216609271246938e+01 4.429140980419635554e+01 3.417558904108741746e+00
7.248708535798805030e+01 6.981169240835235712e+01 3.109730213830332701e+01
6.067195797822320458e+01 6.267838170518446361e+01 6.380032352162481146e+01
6.287213870255821035e+01 5.537282313983612170e+01 9.864140184828889346e+01
5.708530255443127288e+01 5.270709385134583158e+01 3.820278375739105670e+00
5.943317339265957600e+01 5.936105444464143943e+01 1.641849640563587442e+01
6.094452973272787943e+01 6.435521229874174765e+01 8.800602751145225611e+00
4.623614472477392212e+01 3.900660657476282722e+01 8.635770031391459156e+01
5.769591501209790607e+01 2.745445847404446482e+01 8.240944904843742336e+01
3.226837070778202587e+01 6.449063238649169705e+01 8.514844493139939630e+01
5.195018547649811325e+01 4.505365390670760206e+01 1.164489950309621769e+00
5.568121431407401190e+01 6.615243241461749335e+01 5.919144044190700527e+01
7.362798987834214870e+01 5.713395284530771079e+01 6.675025485075691378e+00
3.287459883496065771e+01 7.204337022257779211e+01 6.437706081012446191e+01
6.374453787179020736e+01 5.534277007870680620e+01 1.138966808855279567e+00
6.965071834768890824e+01 3.760417911091564491e+01 9.426097101586556448e+01
2.960655100389470817e+01 5.149294953924827922e+01 1.653704255131859213e+01
4.360482979725878039e+01 6.300345775424381856e+01 3.405759374211186952e+01
3.011590197854453521e+01 5.782297861695136731e+01 4.981296741839803843e+01
5.795363691499810699e+01 2.866605812870229997e+01 3.669578318169952524e+01
5.176389356894345184e+01 3.819580190452688129e+01 5.643010646698301969e+01
3.482306397073686810e+01 7.102098483162649245e+01 3.638994064953324425e+01
3.927351142242275728e+01 5.043807042987668154e+01 4.643317447951528010e+01
2.533981075593726473e+01 5.050280461487669470e+01 3.049654785275446311e+00
4.228684090590870426e+01 5.171503622838772429e+01 3.699988859599774571e+01
4.698454349836749344e+01 3.307929914276556360e+01 7.549402001583290200e+01
7.021643286483124768e+01 5.132199758278187574e+01 8.721060637465811283e+01
3.781963495282190024e+01 5.764055514536333646e+01 7.920031261301959091e+01
3.243136638755805734e+01 7.161645381776111208e+01 1.354188498178280398e+01
5.277722090688769896e+01 5.400291922606876938e+01 4.610335680978120365e+01
3.258901433936427594e+01 4.756550309249170994e+01 6.028075322667594094e+01
4.157860620691830178e+01 6.010826653932156205e+01 7.098047132723719699e+01
5.208155861440821610e+01 2.685571406206410572e+01 7.766068397963906023e+01
5.522222801738465847e+01 6.609738206496757584e+01 3.229010685779010004e+01
4.812739518276050177e+01 6.173542509880670792e+01 4.049108142698440105e+01
7.339203702877004787e+01 4.110471935560580903e+01 3.551317640257163077e+01
4.071642984671250076e+01 4.091966437856498118e+01 5.441801159419535594e+01
5.434698699813631606e+01 4.971538158828716547e+01 1.347857849174380895e+01
7.691698695235874084e+01 3.685624690277138171e+01 9.600118808191254516e+01
4.293227657041952483e+01 4.078849268503589087e+01 1.139452694445435199e+01
6.761417886014571366e+01 7.020971883794911150e+01 7.208932190520977201e+01
6.785473414181606699e+01 5.705614046246064675e+01 9.456296777489970395e+01
4.429371217344360190e+01 5.992935663104786670e+01 4.763382934943661695e+01
5.321179724587826598e+01 2.663776414300238571e+01 8.994530845538352537e+01
3.839488942629726154e+01 7.368168318297001917e+01 4.759422175477241268e+01
7.344870403224035726e+01 3.671738144312921293e+01 1.888087857623466093e+00
3.347353265792790467e+01 6.954884591776503555e+01 6.986355894319559923e+01
7.039359073278308188e+01 4.925218540205084139e+01 9.148861501215040448e+01
4.891965179806155817e+01 4.502651934966381475e+01 1.993808190106269862e+01
5.069301160771944126e+01 6.873899126857145347e+01 6.332834823329955043e+01
3.097653141429034207e+01 5.218844619274782559e+01 6.637044789262560585e+01
3.811005136118140513e+01 7.194702313133811344e+01 3.361653385795799664e+01
2.902836773147603466e+01 5.411880558570243238e+01 2.371636030579060694e+00
7.323007706081810397e+01 6.109465257026531759e+01 8.202929606091772996e+01
4.041098477429571290e+01 2.215010508538527390e+01 5.120233891087593037e+01
5.488417555934738346e+01 5.383263720099120775e+01 5.650737914801052852e+01
2.651232614457395087e+01 4.950559456545848747e+01 8.465344931234052694e+01
5.051657115227325079e+01 7.480347393415887325e+01 1.389599052489162112e+01
3.513559346549267559e+01 2.648662578135714085e+01 3.498616942224784765e+01
7.083240490779702725e+01 3.678471811428010341e+01 5.552633226079402107e+01
6.485341590333423767e+01 7.253896016618325859e+01 2.096609221117003941e+01
7.164762626421669722e+01 3.864937228639136890e+01 2.112629169381964189e+01
4.609695922125396095e+01 6.740013710698535476e+01 5.415062821224878320e+01
5.813665572045748320e+01 7.807854833654764093e+01 1.917734582936709842e+01
3.006556405607441107e+01 5.780750491848316841e+01 3.759383754032933211e+01
2.659740646541121123e+01 4.621404732699006956e+01 5.491440152414511999e+01
7.269798713458153827e+01 3.780310622331951720e+01 8.108196886213225874e-01
5.598931015359494268e+01 3.009190731654187800e+01 1.671343148693071967e+01
4.071737385988753033e+01 2.322733647905007714e+01 5.348009769191680363e+01
2.644042979296453666e+01 5.276244568387078715e+01 5.174610093842911596e+01
7.011411313835769477e+01 2.906429693065311071e+01 2.974926699926682261e+01
7.160630534195581731e+01 3.231940653243361794e+01 3.186972572853973418e+01
4.485425493684594045e+01 6.262448227630329711e+01 1.463730665889677596e+01
3.417118793416883449e+01 6.836995457246207764e+01 1.968321538141371008e+00
7.356426600113653080e+01 4.870160405162394568e+01 8.131821472844612231e+01
5.121699559338871666e+01 3.601421141389380409e+01 4.650353247306727411e+01
3.633244755690100192e+01 5.013509936337459294e+01 4.339717857856085104e+00
4.642723693243399907e+01 4.953176469339087618e+01 4.276917880334610800e+01
7.360173683653358978e+01 5.568444131345625436e+01 9.290208857168011036e+01
3.779683556412841483e+01 4.636758057731780269e+01 8.852231521472841536e+00
6.089991110519284945e+01 2.882119684481060418e+01 1.603090395155688697e+01
5.445312929045081063e+01 5.323102633799106087e+01 7.587164122404754352e+00
6.982154534944727686e+01 6.237721906508528491e+01 1.890172827464972016e+01
4.694348621540438415e+01 7.203229164785599892e+01 5.294357405412765161e+01
3.954890761835702051e+01 3.223384580809436528e+01 6.103938666440535599e+01
4.183833377132715015e+01 4.408551127025158678e+01 6.342430909775426073e+01
4.690603402211536377e+01 3.341364118761733693e+01 1.073611184506677674e+01
7.333615147320935534e+01 6.374988029341631801e+01 6.452777553235628716e+01
6.970911382607584983e+01 5.868204450735636613e+01 8.327790710232946481e+01
3.791608639799434144e+01 3.402749822340308583e+01 6.208326327741928452e+01
2.629242476321470434e+01 3.754986220207201342e+01 4.977565636068963784e+01
3.864433509308173598e+01 3.302941754681341280e+01 5.953557225103119066e+01
6.648077585802445810e+01 2.861808707979073318e+01 1.989168137372247003e+01
5.194487863912375758e+01 5.626887557907294024e+01 9.449474208215045223e+01
5.602414637830525379e+01 2.550036525010757060e+01 2.625502300200002281e+01
7.826515628228766275e+01 4.553184100619284180e+01 6.980743384786488548e+01
5.073940938449605653e+01 3.289197782107243739e+01 5.083116942766945101e+01
5.539417338546375191e+01 4.505824928161173659e+01 2.855250717153395712e+01
2.980425227913558928e+01 3.831014335905844348e+01 8.355707099645603364e+01
3.524327315388416082e+01 5.549098338254088958e+01 1.880410925887857587e+01
4.807140564843559360e+01 4.988510237442742579e+01 2.150852287850928235e+01
7.700890312540819593e+01 4.623284974592826302e+01 7.140870226850174163e+01
4.696542569516235233e+01 7.829341727398671935e+01 7.462548943502054044e+01
6.046127135052216062e+01 6.863666065786794945e+01 1.835572437914179122e+00
3.117776468050219663e+01 6.378221792594101913e+01 9.344953486244200747e-01
7.938359121486163872e+01 4.648498037040521780e+01 5.375231002030484717e+01
3.652442016153718640e+01 3.927856463287049138e+01 6.956407534454081087e+01
5.598831655769838278e+01 7.896736137927557309e+01 7.388050500786864916e+01
5.960301609498011288e+01 4.603861756750406187e+01 3.644098659954032371e+01
3.530047509718362875e+01 6.363727057095906048e+01 7.512731169377458684e+01
7.916400721830629550e+01 4.757040781890562187e+01 5.366232797354938100e+01
5.037734437246340491e+01 6.459515311120451031e+01 9.728943893876949289e+01
2.860600516592855058e+01 5.168367677344991762e+01 2.633636189980792608e+01
5.548067582739479775e+01 4.228764684667788742e+01 5.657515642245824239e+01
4.727933453015830167e+01 6.771274885739019567e+01 8.745052950380770085e+01
2.535010161057731182e+01 3.308870876937942995e+01 2.697960578923641606e+01
5.114364063015872830e+01 4.401484472241325108e+01 5.124285513766563582e+01
6.727136115004361727e+01 3.871305089711483305e+01 2.513076871421568015e+01
5.880862458546977223e+01 5.706896615768479819e+01 4.842661981097254653e+01
5.499789863838642390e+01 4.917906326236681025e+01 5.654563660741082032e+01
6.033255656445983561e+01 3.120013061084503292e+01 9.098236408320603630e+01
4.503832130390079413e+01 3.251329284002644471e+01 4.711103549977539018e+01
7.640930002129815080e+01 6.193513059362989281e+01 2.321339128001561747e+01
4.098476731183500021e+01 5.249340842434675380e+01 4.771297673956832597e+01
4.476238726655249422e+01 7.751907692939057881e+01 5.267689072694919616e+01
5.831951618830459694e+01 2.299614154010341949e+01 1.481339220163830817e+01
6.538299638276777159e+01 6.812092578215488459e+01 7.521548922576658924e+01
5.884335564164248211e+01 5.569520916641752706e+01 6.557962798997198206e+01
7.161738769564306040e+01 4.167490606240531292e+01 7.572955720711928507e+01
3.828242079635037953e+01 5.891187359802365364e+01 7.208163164749156238e+01
5.119021212696240042e+01 3.196181255080712447e+01 1.676215638405844643e+01
6.007397744503933978e+01 6.818330320328587391e+01 9.935015603957081964e+01
2.323355459240181631e+01 6.239455747613883574e+01 4.603213900573983608e+01
6.490917405385481231e+01 5.671630879133922321e+01 5.534295611637274703e+01
3.975918693106466151e+01 6.249224697884563540e+01 7.798186756231434913e+01
7.839252791418876143e+01 5.192800823952713785e+01 8.579519454023363778e+01
4.170552362327055818e+01 2.291166139113990496e+01 2.317902776165796652e+01
6.161108004157210871e+01 4.743255705502910047e+01 3.916665428788088832e+01
3.445619079878753155e+01 4.981507202511483712e+01 4.576318745451750658e+01
7.626525587561408770e+01 4.274419208565599604e+01 6.266436833117583660e+01
7.275933433047433141e+01 6.793166653135534716e+01 4.705007190896822777e+01
3.878985289517298440e+01 3.759599096406637386e+01 6.400487969300563407e+01
5.125909252672963135e+01 3.306008099700018477e+01 8.605114865874450913e+01
2.745723155510215818e+01 5.460988080032907988e+01 2.140071131738742238e+01
4.755265216261933858e+01 3.181752095087031407e+01 2.667034306372142538e+01
6.815260298866503774e+01 6.801096984332772877e+01 6.690800168622831734e+01
4.710828507045131630e+01 3.979530562013334816e+01 3.101472210908020699e+01
4.513367251540972802e+01 3.841941849259774244e+01 4.323338998786653065e+01
4.802367134710267038e+01 6.237422454995411414e+01 8.301829666176938360e+01
3.604630291492555472e+01 4.304219080879668979e+01 4.095184802787139233e+01
6.771907236726553947e+01 4.840389402278483999e+01 9.782694859989881309e+01
7.092720116698130539e+01 5.321111338370037203e+01 4.778770771227306113e+01
5.528417959847682539e+01 2.532453630402508082e+01 9.556213797813560973e+01
4.140678257678164442e+01 2.327302418700535469e+01 4.913490902687852468e+01
5.783291027043041765e+01 6.892297363629519680e+01 1.068833750870313892e+01
6.015485063797061116e+01 6.063169473745320204e+01 3.650253040388230374e+01
6.464017366657996888e+01 5.453628521336416668e+01 5.120634919032907462e+00
7.455030853527726720e+01 5.053320333358802685e+01 6.477090747902298062e+01
5.026398049755352559e+01 4.918113223224559505e+01 1.717891094777668215e+01
5.905896577385849611e+01 6.101785762366418453e+01 1.539741297438290601e+01
6.010258774886899857e+01 3.273766801153992390e+01 7.809448189504871607e+01
5.007349061441983906e+01 4.559461857686613229e+01 3.444280462171882817e+01
3.942582354957452395e+01 6.770819719511081303e+01 4.759816903492203011e+01
4.591591303759113885e+01 2.517884533468843955e+01 3.703201754505221999e+01
3.554366807245313709e+01 2.515130396764008225e+01 6.946717295969575900e+01
6.276198739827059114e+01 3.218466352013202680e+01 2.464779095767362094e+01
5.901164223444708057e+01 2.980416983469145009e+01 3.506494901871870518e+00
4.529981008299638034e+01 5.128826025095737151e+01 7.130314563751039714e+01
3.269776232427392415e+01 4.424913136680373782e+01 6.469467083373054095e+01
4.941257411412706091e+01 6.202788171008428719e+01 5.442000021136278320e+01
4.127630727487936468e+01 7.642456208523800854e+01 5.825538370419940293e+01
4.018987079559666142e+01 5.757193053312042963e+01 5.833862323277480044e+01
7.499869843799751834e+01 5.098899482056101817e+01 1.048226409407655524e+01
5.902990717555995559e+01 6.300071354465232076e+01 8.454192017007699178e+01
2.968002050518389012e+01 3.542657213276257977e+01 9.059519191946444039e+01
5.297749152567985220e+01 3.217370298582778076e+01 7.502208889291816618e+00
5.477399094691368475e+01 6.095685338984640822e+01 9.106618208218097976e+00
3.895491644815224674e+01 5.112957462460345681e+01 9.290763602568236479e+01
3.576405495889113695e+01 2.907438658906739093e+01 6.147709531562622942e+01
5.246884120934773676e+01 5.550826014376510642e+01 7.424575642135565090e+01
5.691415704542682619e+01 3.823645979167108777e+01 9.345580725432817815e+01
4.321171756158944532e+01 5.388193672496690567e+01 4.461143071251877501e+01
5.648183139601970737e+01 4.705050789923271992e+01 4.796755857947587742e+00
7.316459039198880987e+01 4.394482232929203036e+01 2.978473483600217975e+01
7.273972938459515092e+01 3.707106570377840171e+01 1.843682380196938198e+01
5.380795428740542263e+01 6.621858857118336061e+01 1.161807750118909510e+01
5.550185242052910439e+01 2.872125711273615423e+01 9.401760633010566437e+01
3.946290699060319440e+01 3.724689389121083138e+01 4.557358140084847520e+01
4.864090989910864948e+01 2.247500381773575029e+01 1.951746150400062163e+01
5.266422635251974782e+01 4.515463609730564798e+01 5.796108992282839267e+01
5.577647590980618020e+01 6.513361058002054449e+01 1.540757324730834910e+01
3.390876132626799944e+01 7.098954333814535289e+01 4.786559890610709189e+00
4.078600255909133665e+01 7.050345222633328035e+01 2.268705163314941231e+01
3.535488542043371041e+01 4.824514703811176020e+01 5.973493009778530904e+01
4.724621139148904803e+01 6.983133239405600534e+01 4.336969331069595768e+01
7.161276404767374970e+01 3.444382884285099777e+01 7.866525160763467284e+01
2.912725222557369520e+01 3.724006660353561671e+01 7.763913686527260438e+01
5.959268121167337995e+01 6.443657004925672993e+01 7.575098228185059668e+01
6.974612672267268465e+01 5.062310360908801954e+01 2.563224988442258656e+00
2.554282810460905040e+01 5.066912010062986838e+01 9.664092961234290158e+01
3.749645490745292875e+01 6.258583970701171495e+01 7.935911972023235705e+01
2.805902159743689595e+01 5.567983843731716576e+01 7.087285799048996182e+01
5.852203293909552428e+01 2.808832730675997524e+01 9.102217014103121073e+01
3.041100073428368944e+01 4.497254105921061296e+01 5.437624559186556894e+01
5.136526718213295339e+01 6.945419740372740591e+01 5.548394206791062544e+00
3.607884010787266504e+01 6.122090632572157887e+01 1.528871156479981686e+01
3.124058976796317921e+01 5.143832465110202179e+01 5.887594635650095398e+01
4.117820274857746199e+01 4.738084349601386691e+01 4.145208293901811203e+01
4.951715922466662789e+01 6.092226627693546703e+01 2.749083374822407677e+01
7.167977166993706817e+01 5.949160209188715243e+01 3.248241097485546902e+01
6.616750607175303855e+01 3.110417050569839148e+01 3.200109892470634065e+01
3.394939150599427791e+01 6.801585467588786571e+01 5.813379102682858957e+00
4.035703924496013428e+01 7.023961425404267800e+01 5.570659326839171399e+01
4.853723712045504612e+01 3.539058262568587310e+01 8.914550645563721787e+01
7.401493936975907673e+01 4.481286994651595279e+01 9.375259867595829633e+01
7.366567352187904305e+01 4.579245798608978646e+01 5.693352017760939532e+01
6.926134434251007121e+01 5.921901804292182447e+01 8.786975838260758565e+01
3.568886622804011921e+01 2.998857400558049235e+01 2.138388894952642971e+01
6.783931464059072880e+01 6.605324154364861045e+01 6.146428189348860371e+01
2.571771360244272842e+01 5.640849216886250872e+01 5.330305614882555432e+01
5.126880723288114439e+01 6.757467603471771156e+01 9.602523252014375998e+01
5.744284830031445210e+01 6.956402157189359059e+01 9.243163550074291379e+01
7.123940284729216899e+01 3.683745075847340189e+01 7.130282022890966687e+01
3.463635031084942995e+01 5.993792222611017451e+01 9.371449668151218759e+01
3.347435317993622306e+01 5.092889906799261723e+01 5.323477279546288088e+01
